x y z
1.386215 -4.803999 14.601009
-2.133374 -4.522025 91.255282
3.367999 -3.695482 94.009815
-1.458780 4.782464 64.973404
-4.487056 -2.205976 29.217492
2.872889 4.092250 84.508773
-1.705475 -4.700144 42.228441
-3.375704 3.688444 33.389107
1.894743 4.627089 5.396546
-4.776022 1.479735 14.788643
1.029102 -4.892949 93.488958
0.440758 4.980535 76.196017
0.178775 -4.996803 31.389993
-0.197911 4.996082 77.073089
-1.488118 4.773416 27.365669
-4.997277 -0.164986 17.712396
1.034261 4.891861 36.491793
-4.537342 2.100601 80.096612
-1.561056 -4.750064 97.507317
3.574020 -3.496624 38.159563
-3.971564 -3.037545 57.568350
-4.984208 -0.397078 52.743294
2.121016 -4.527835 9.035159
-0.934211 4.911950 83.478249
4.577078 2.012550 34.262397
4.962338 0.612541 13.384237
4.758655 -1.534667 15.320841
-3.985193 3.019642 9.572504
-0.833781 4.929991 83.993945
0.176562 -4.996882 2.577876
-4.905155 -0.969256 25.425543
-4.809375 -1.367447 89.687989
1.854546 -4.643346 27.511206
3.934177 -3.085815 56.178230
3.670478 3.395231 76.427670
-2.935832 -4.047331 74.621726
3.636512 -3.431586 55.057837
-1.534638 -4.758664 39.478226
-3.807538 -3.240780 66.463130
2.899158 4.073681 15.236545
-0.597200 -4.964207 15.952460
2.937101 -4.046410 22.332335
-3.023883 3.981976 65.949446
3.500488 3.570235 8.695337
0.142127 -4.997980 5.761039
-4.848661 -1.220855 42.253175
-3.505943 3.564879 80.282090
4.240034 2.649926 34.762467
3.922647 -3.100458 31.871178
4.972907 -0.519803 85.213108
-4.757119 1.539422 0.351109
-4.539578 2.095764 19.784559
3.299363 3.756887 66.562086
4.984958 -0.387544 71.768299
-2.674338 -4.224680 31.844736
0.417555 4.982534 26.642469
-1.371607 4.808190 35.130170
-4.998997 -0.100137 31.329419
-3.460181 -3.609314 54.192099
-4.770774 1.496566 70.108480
2.241241 -4.469546 5.133687
0.713123 4.948884 41.291475
1.509650 -4.766651 77.873014
2.658250 4.234821 36.405584
-4.967954 0.565183 66.818979
4.992407 -0.275442 29.648632
-2.730898 -4.188341 55.103688
2.205493 -4.487293 99.814416
0.721560 -4.947661 75.660829
1.265456 -4.837212 73.228901
-4.994002 0.244844 72.634351
-1.686124 -4.707121 99.063531
0.721403 -4.947684 44.231925
0.984589 -4.902100 44.515611
3.878668 3.155302 29.676260
2.892324 4.078537 55.694619
-4.967185 0.571903 14.732791
4.951055 -0.697894 91.851600
-1.717084 -4.695916 80.554234
1.837301 -4.650196 10.345153
4.638749 1.866014 2.151464
-2.844975 -4.111705 31.762395
0.759319 4.942007 36.169499
4.844439 1.237501 65.830982
1.829634 4.653218 59.494455
1.432264 4.790472 99.742319
-2.396218 4.388409 94.576116
3.191939 3.848574 68.218321
3.053176 3.959560 29.067634
2.670360 4.227195 20.188472
-0.093775 4.999121 57.698630
4.721168 1.646380 42.656838
-2.148680 -4.514773 49.617031
-2.755340 4.172302 97.280687
0.386252 -4.985059 80.013466
4.689626 1.734188 31.432801
4.916489 0.910020 29.550509
-3.849572 -3.190736 23.987997
-4.044868 2.939226 17.927379
-4.324999 2.508862 30.185361
4.858160 1.182491 31.709386
-1.293195 4.829870 47.381254
-3.287030 -3.767682 91.208578
0.132671 -4.998240 3.943372
4.330001 -2.500219 3.348562
-4.726391 -1.631328 23.696831
4.158655 2.775894 98.195537
1.211772 4.850939 40.185695
0.242505 4.994116 32.399032
1.692910 -4.704684 43.791863
0.967125 -4.905575 28.175242
3.887017 3.145012 1.982215
4.045660 -2.938135 24.749908
1.219098 -4.849103 63.994110
-1.350523 -4.814155 94.225984
4.885451 -1.064126 86.897271
-2.344427 -4.416295 52.084164
-4.041919 2.943279 20.064566
-2.344597 4.416205 13.088578
4.942656 0.755085 71.338110
-2.366422 -4.404548 29.453655
3.115158 3.910984 75.332530
-4.986809 0.362957 24.476595
4.574699 -2.017952 90.275991
4.245124 -2.641765 90.975340
1.459103 4.782365 97.046460
-2.603330 4.268802 77.259848
-4.649772 -1.838375 8.018209
4.457731 -2.264649 2.869013
-0.757398 -4.942302 55.337805
4.935813 -0.798595 15.511867
-4.103539 2.856740 62.003632
-4.943387 0.750286 93.265540
-1.376169 -4.806887 3.607031
4.547438 2.078656 67.343560
3.555749 3.515202 81.732066
2.624282 -4.255954 2.675118
4.985062 -0.386211 43.542554
-0.080719 4.999348 97.078005
3.476101 3.593984 13.785837
3.601777 3.468025 31.512063
-4.281508 2.582381 85.941098
-4.203637 -2.707293 99.948184
-2.843555 4.112687 9.764075
0.103816 -4.998922 1.369230
2.012687 -4.577018 22.611968
-3.381659 -3.682985 87.487215
-4.953768 -0.678368 21.052732
-2.805932 4.138447 22.284253
-1.797231 -4.665829 6.881049
-4.552534 2.067470 56.303524
4.296051 2.558113 14.506189
-4.516064 2.145966 78.867788
-3.835186 -3.208013 13.499114
-4.566648 2.036106 80.186234
-4.947210 0.724648 45.673310
-4.073554 2.899337 99.298614
4.476115 2.228091 42.915298
-0.829134 -4.930774 67.892499
-4.312310 2.530609 96.094672
1.972117 -4.594644 82.660056
-0.286119 -4.991807 54.861414
2.928438 -4.052684 57.443518
2.067483 -4.552528 38.631506
-4.991021 -0.299514 8.935112
4.998096 -0.137970 36.164219
-4.334351 2.492669 13.347638
2.721182 -4.194659 28.193268
1.746821 4.684935 74.221150
4.330493 -2.499366 16.413743
1.722014 4.694110 39.727362
-3.913893 -3.111501 37.397848
2.852190 4.106704 46.732620
-4.472153 -2.236034 38.364887
1.998782 -4.583107 52.899871
-1.253119 -4.840423 30.050898
3.709473 -3.352583 30.591766
-4.827644 -1.301483 66.841824
-3.850404 -3.189731 98.960257
4.991474 -0.291862 38.694578
0.427810 4.981664 93.019542
3.217775 -3.826999 95.690017
1.221126 4.848593 44.621797
3.570049 3.500678 30.932955
3.946112 3.070538 28.260555
-0.713215 4.948871 82.914840
-4.956214 -0.660260 26.241800
-2.368413 -4.403478 25.378412
-2.703447 -4.206112 25.441960
-3.929809 3.091375 45.817041
4.605346 -1.946996 40.542751
0.368217 4.986423 2.590540
-3.434319 -3.633931 72.795555
0.206923 -4.995716 71.264517
4.747492 -1.568859 7.565416
3.637652 -3.430378 85.863421
3.585664 3.484683 94.051011
-3.752828 3.303980 19.556126
-4.520345 -2.136933 12.666590
-4.488574 -2.202884 67.711151
-4.041785 2.943463 68.658322
3.030382 3.977032 34.138401
0.780153 4.938761 62.569484
1.237769 4.844371 24.289873
-0.892786 -4.919648 51.069498
-2.809336 4.136137 96.605499
-4.330813 2.498811 34.622937
1.378511 4.806216 15.145569
-0.808261 4.934239 21.174471
2.129907 -4.523660 64.686537
0.417767 -4.982517 72.205870
1.333503 -4.818897 40.599917
-0.334289 4.988813 17.968264
-3.899752 -3.129206 53.723415
-2.318778 -4.429816 45.920102
3.398248 3.667684 95.225430
2.341024 -4.418100 95.175840
2.123578 4.526634 80.131064
-1.487298 -4.773672 87.583600
-2.861249 -4.100397 49.041316
-0.986674 -4.901681 46.355799
-0.599281 -4.963956 86.646668
4.867895 1.141752 51.753434
-4.729370 1.622671 17.484828
4.794450 1.418889 79.795209
0.005284 -4.999997 21.189457
4.886044 -1.061402 31.886015
-0.562666 -4.968240 94.440341
3.001718 -3.998711 19.043335
-2.524350 -4.315977 27.017266
-3.522453 3.548567 26.551145
-0.465465 4.978287 94.122468
-4.996564 0.185328 67.148023
3.155718 -3.878330 98.179740
-4.212171 -2.693997 53.963561
4.756006 1.542857 45.398488
-3.509896 -3.560987 84.200444
4.999782 0.046649 65.890135
-2.493402 4.333930 81.453173
-1.111916 4.874797 0.209690
-4.997195 -0.167464 39.526113
0.539224 -4.970839 40.729741
3.410412 3.656377 21.248506
-3.250288 3.799425 47.706432
4.957930 -0.647250 60.513265
4.038639 -2.947777 98.841435
3.716795 -3.344464 18.080010
4.869517 1.134814 96.382631
-4.996113 0.197114 91.639516
-2.590476 4.276615 61.535501
3.663815 3.402419 74.808009
-4.238398 2.652542 44.053171
4.793440 -1.422298 93.594530
-1.332918 4.819059 94.865383
-4.839537 1.256537 57.787913
4.991897 -0.284547 36.078221
4.735341 1.605161 85.396918
2.276617 -4.451631 30.194509
2.874423 4.091172 31.531190
-0.272126 -4.992589 28.163647
-1.118910 4.873196 25.789929
2.092783 4.540954 81.570910
-3.853916 -3.185487 87.871590
0.752963 4.942979 42.389858
-4.970420 -0.543070 61.331300
3.709478 -3.352577 58.595266
3.837644 3.205072 64.238272
-4.984743 -0.390305 59.921876
-4.975653 0.492829 36.638987
4.415973 2.345034 62.667415
-4.002070 2.997238 94.286632
-3.447178 3.621735 76.790441
4.975706 -0.492294 2.905883
-3.105419 -3.918721 48.544507
4.471062 -2.238215 13.878185
4.898492 -1.002387 30.848981
-4.864201 -1.157388 45.870351
0.346799 -4.987959 21.134946
2.976069 -4.017837 73.011781
-0.346716 4.987964 45.385294
-4.957544 -0.650196 69.503833
-2.293894 4.442752 68.147464
4.687629 -1.739578 55.875764
3.920940 3.102616 93.733976
4.561725 -2.047111 1.611614
-4.846610 -1.228973 45.921817
4.801154 1.396039 92.216806
3.731166 -3.328423 23.415046
4.973888 0.510333 84.850903
4.125251 -2.825298 41.946504
3.477341 3.592785 50.820455
-4.340395 -2.482131 26.650665
4.695913 -1.717091 49.839330
3.204671 -3.837979 88.653924
3.288847 3.766097 68.221456
-4.953383 -0.681177 65.631718
-4.719323 -1.651663 2.992033
-1.856363 -4.642619 55.654955
-4.951010 -0.698215 68.961866
-4.629179 1.889630 10.191745
2.938624 -4.045305 20.375410
-4.968316 -0.561991 66.293289
2.520877 4.318006 29.998297
-4.944061 -0.745830 58.310559
4.442980 2.293453 14.603635
3.576728 3.493854 56.625573
-2.873938 -4.091513 44.931190
-0.669598 4.954961 71.563399
4.999574 -0.065291 6.786932
2.662081 -4.232414 69.521382
-3.432450 -3.635696 16.720873
1.669621 4.713000 49.729296
1.303095 4.827209 69.290688
1.907207 4.621965 45.237154
-4.828232 -1.299299 38.341619
2.300263 4.439458 27.125371
4.759065 1.533394 37.518071
-4.404032 -2.367383 53.676985
2.396225 -4.388406 83.510875
3.343439 3.717716 49.527232
0.539345 4.970826 95.101820
4.975181 -0.497564 18.182751
4.029172 -2.960705 86.459557
0.035644 4.999873 97.102684
0.475498 4.977339 96.408423
4.946057 0.732474 29.842442
-0.453893 -4.979355 66.084868
-1.805205 -4.662750 47.031029
-2.047377 4.561606 69.337225
3.285932 3.768641 18.486255
4.159390 -2.774793 85.133465
-4.944579 -0.742390 46.581787
-4.242589 2.645833 29.595322
-2.096021 -4.539460 54.429263
-0.499915 4.974946 10.428703
1.901122 4.624471 90.148696
-3.917620 3.106807 25.635613
0.387369 -4.984972 15.923242
4.280502 2.584048 20.159332
-4.544762 -2.084501 75.795957
-4.838907 -1.258961 41.555703
4.949539 -0.708568 86.868335
4.630522 1.886336 62.684201
-4.989643 0.321657 10.847936
-0.119133 4.998581 76.211129
2.480211 4.341492 69.654191
-3.990618 -3.012469 38.503897
4.991060 -0.298863 72.971486
-2.416474 4.377288 21.780119
-4.439006 2.301135 39.464436
-0.453489 4.979392 66.727368
-3.352619 -3.709440 25.735130
-0.279694 -4.992171 3.163642
4.321870 -2.514247 97.335940
-4.824745 1.312187 59.265254
4.983389 -0.407231 79.031540
-4.362688 2.442734 28.866547
-3.773475 3.280379 37.866050
-2.196232 4.491833 38.340324
1.113889 4.874346 32.351786
0.098122 4.999037 18.524635
-4.993429 0.256250 79.040749
-3.665559 -3.400541 34.475663
-4.126358 2.823680 38.388391
-4.995669 0.208061 27.594169
3.797224 3.252859 95.442017
0.020554 4.999958 0.321293
1.964557 -4.597882 15.147846
-2.993844 -4.004610 79.042109
-3.127161 -3.901393 96.790896
4.708616 -1.681943 71.255561
2.768063 4.163872 51.993274
-4.442012 2.295327 29.194544
-4.970981 0.537908 24.596564
-1.123849 -4.872060 63.585796
0.728510 4.946643 15.770973
-0.011944 4.999986 86.580730
4.861120 -1.170262 61.674707
-1.561299 4.749984 22.193998
4.928974 -0.839770 49.272085
4.332609 -2.495696 91.333358
-3.393539 -3.672042 54.475950
4.768756 1.502987 80.355970
2.410619 4.380516 28.184744
-4.527437 -2.121865 6.251040
3.508018 -3.562838 33.354978
4.398654 2.377361 27.356982
-4.512969 -2.152466 93.595216
4.834444 -1.275992 46.309934
-4.151805 -2.786129 35.644912
2.735657 4.185234 13.914733
-2.926560 -4.054041 95.329650
4.221215 -2.679802 81.451738
-4.841970 -1.247129 78.146290
-3.411370 -3.655483 12.211799
4.061207 -2.916608 64.651296
4.231074 -2.664210 97.645354
4.126170 -2.823955 98.893290
-1.587485 -4.741296 22.936832
4.999972 0.016729 81.573196
1.807363 4.661914 32.041615
4.668671 -1.789836 63.660668
-4.016400 -2.978008 35.865707
2.094581 -4.540125 49.339742
4.998615 -0.117663 48.898535
-3.500773 -3.569956 28.265522
4.268362 2.604052 71.836495
-4.814208 1.350335 79.526106
-3.739665 -3.318871 15.321840
3.991038 3.011913 35.002458
4.674687 -1.774063 14.271175
1.586503 -4.741625 79.267011
2.194573 4.492644 74.402054
4.991971 0.283234 35.402491
3.144770 -3.887212 82.381760
4.755557 1.544241 22.890149
-2.781075 -4.155192 91.063326
-3.889716 -3.141673 24.362298
-3.708281 -3.353901 93.439270
2.409664 -4.381041 49.034385
0.065897 4.999566 55.850205
-3.813660 -3.233574 45.601372
1.069633 -4.884249 51.292530
-4.682661 -1.752907 57.162620
4.328390 -2.503007 81.490573
-4.938763 -0.780141 51.157156
3.656372 3.410417 87.037708
-2.434280 -4.367411 15.238335
-4.999786 -0.046299 56.166642
4.662524 -1.805787 84.974112
0.719970 -4.947893 76.970985
4.662342 -1.806257 62.013773
4.342428 -2.478572 79.165548
2.386385 -4.393764 7.147498
4.596018 -1.968913 21.160693
2.357839 -4.409149 43.694351
3.955756 -3.058103 20.134843
-1.242399 -4.843185 67.587008
3.805528 3.243140 15.005820
-2.607744 -4.266107 40.308895
-4.953171 0.682712 11.460791
4.938799 0.779913 17.787748
4.784163 1.453197 40.786871
-4.525462 2.126075 85.547337
3.625710 -3.442997 26.215881
-0.779682 -4.938835 49.980776
1.112385 4.874690 49.985243
-0.376669 -4.985792 43.075896
-4.857942 -1.183384 77.104500
-1.114525 -4.874201 18.688445
-2.924857 4.055269 44.714376
0.612459 -4.962348 64.328955
-4.505917 -2.167190 38.087349
3.305697 -3.751316 0.528443
4.741416 1.587127 96.258617
1.064583 4.885352 90.175821
1.194281 -4.855275 45.308027
-2.159479 -4.509618 71.069247
-1.283397 -4.832483 70.409098
4.952300 -0.689003 59.929587
-3.981151 3.024969 17.591399
3.824057 -3.221271 59.900491
4.229892 -2.666086 0.045929
-4.248551 -2.636250 2.107542
0.073254 -4.999463 47.780890
4.666973 -1.794259 33.631034
-4.660705 -1.810477 79.632148
4.165310 2.765898 18.973317
-1.736171 -4.688892 7.075018
4.294459 2.560786 38.515282
3.593459 -3.476644 50.705551
4.484512 2.211144 67.699950
-4.993851 -0.247892 62.788985
2.592501 -4.275387 13.920586
-1.542905 -4.755990 78.122991
-4.990258 0.311966 44.602887
3.219503 3.825546 74.616387
4.999703 0.054495 37.652628
3.067911 -3.948154 90.683509
-3.270322 -3.782195 96.319222
1.379870 4.805825 66.153690
-4.926827 -0.852277 63.596724
3.338318 3.722315 45.615451
-3.332137 3.727850 84.520231
-3.842922 -3.198742 96.862980
2.726092 -4.191470 94.987118
4.568351 -2.032282 82.846046
-4.853756 -1.200440 47.881564
4.756398 1.541648 84.532539
4.199808 -2.713229 21.498053
3.825560 3.219487 45.506821
-1.507330 4.767385 0.944623
-4.343547 -2.476610 74.088335
-3.516167 3.554795 32.120871
1.014356 4.896027 10.603749
-4.999088 0.095512 30.628728
1.826402 -4.654488 42.993941
-0.213671 -4.995432 88.615085
-4.393855 -2.386219 70.969750
-4.864818 1.154792 83.446958
-4.454546 2.270906 3.918148
-4.837717 1.263524 54.698073
-3.779942 3.272925 65.506914
2.883415 -4.084840 68.802850
4.827311 1.302718 84.030363
3.078446 3.939945 11.630707
-1.130440 -4.870534 68.619760
-4.768834 -1.502737 97.737481
-2.450504 -4.358329 98.032249
1.413577 4.796019 39.317473
4.997530 0.157132 31.883030
3.850456 3.189669 29.950662
4.626210 1.896888 71.239066
4.920935 0.885664 22.662972
-2.950024 -4.036998 80.576872
-4.373682 -2.422995 36.452817
-2.734792 -4.185799 8.924959
1.050965 4.888300 51.143908
1.960785 4.599492 46.088131
1.266892 4.836836 3.904413
4.946266 -0.731060 57.007135
1.693658 -4.704415 75.148876
-4.394580 2.384883 51.599829
4.954243 -0.674887 76.349756
-4.049820 2.932398 38.688231
3.262363 3.789061 59.256614
4.025790 2.965302 65.110059
-1.512395 -4.765780 55.207862
4.999921 0.028123 56.475812
-3.243990 -3.804803 41.397348
3.186512 3.853069 47.210924
-1.112716 4.874614 54.982245
-1.349359 -4.814481 79.169373
-1.362980 4.810643 67.698621
0.656802 -4.956673 64.994564
0.897533 4.918784 44.532591
3.272192 -3.780577 9.135398
4.770622 1.497053 80.997924
-3.785408 -3.266602 55.328210
-4.974633 0.503022 13.540508
-0.260241 -4.993223 59.684977
-4.988613 -0.337261 16.385561
4.252871 -2.629276 91.377556
-2.828389 -4.123132 49.778830
3.386700 -3.678351 22.802108
-2.583313 4.280945 82.428801
2.064770 4.553760 34.036544
-2.702475 -4.206736 60.580144
-0.428749 -4.981584 64.186600
4.388866 2.395383 96.315126
-3.961025 3.051276 6.043842
4.235676 -2.656887 70.421975
-0.183510 -4.996631 1.019532
-4.991986 0.282976 95.682152
-2.342029 4.417567 12.256395
4.990329 -0.310829 63.831616
4.443162 -2.293102 62.938132
1.207468 -4.852012 10.140854
-4.588335 1.986751 19.662518
-2.874960 4.090795 0.315725
-3.946611 3.069896 26.702921
3.552821 -3.518162 13.521344
-0.152265 -4.997681 16.462849
0.193672 4.996248 84.148698
-3.964959 -3.046162 12.152798
-2.314566 -4.432018 16.262758
0.298720 4.991069 48.704049
-2.176503 4.501426 21.743555
3.929425 -3.091863 97.774639
4.984327 -0.395582 5.968629
-4.811699 1.359248 66.842442
-4.800897 -1.396922 25.450653
-3.194598 3.846367 69.149164
-4.995038 0.222708 33.072925
4.918825 0.897309 48.357929
4.311015 2.532815 67.407510
2.392783 -4.390284 49.168092
-4.785648 1.448300 7.459212
0.224852 4.994942 80.989808
2.044112 4.563070 79.730383
2.255023 4.462608 13.102932
-0.913779 -4.915792 5.969979
-2.785937 4.151934 7.795890
1.101333 4.877199 15.439509
3.168185 -3.868152 92.321309
3.919875 3.103962 28.825184
4.650450 1.836658 80.675395
-4.241414 -2.647718 5.082599
-4.980621 0.439788 66.355710
-2.083478 4.545230 91.964785
4.101242 2.860037 39.042466
-1.044935 4.889592 65.317060
-3.977329 -3.029993 58.434430
2.204224 -4.487917 77.675244
0.858129 -4.925811 31.529532
-4.999374 -0.079105 25.755055
-0.087861 -4.999228 76.255717
-4.898399 -1.002837 54.847458
0.809916 -4.933968 31.128184
-1.202374 4.853277 59.856602
-3.725646 -3.334600 64.276312
-4.633281 -1.879550 4.104564
3.888013 -3.143781 76.302279
-2.729133 4.189491 29.246820
-0.836940 4.929455 5.147645
-4.223749 -2.675808 82.301628
3.204769 3.837897 93.982256
1.831829 4.652355 33.418150
-4.438520 2.302074 12.550456
4.897175 -1.008799 16.351964
-4.475508 -2.229311 98.177003
4.578806 -2.008615 8.378729
-2.287491 4.446053 38.489483
1.022762 4.894278 89.475603
-3.326133 -3.733208 9.849008
3.804288 -3.244595 47.424591
4.902942 -0.980389 28.343923
-3.159205 -3.875490 11.251376
3.973513 -3.034995 42.062171
-3.249235 3.800325 18.342677
3.278307 -3.775275 76.432241
-3.844267 3.197126 13.587167
4.959718 0.633402 18.990777
-2.263202 -4.458466 4.498731
3.959066 -3.053816 29.910414
2.231193 4.474570 82.007713
-3.612093 3.457280 50.210009
-0.111636 4.998754 27.414516
-2.507264 4.325925 74.379770
-3.208437 3.834832 29.060016
-4.999463 -0.073282 42.431883
-4.108793 -2.849179 14.819495
2.159030 4.509833 3.727636
0.228808 -4.994762 79.360884
0.077801 4.999395 89.946094
2.827436 4.123785 74.858966
4.990139 -0.313861 41.286968
3.752999 -3.303786 9.555090
-1.861020 -4.640755 13.872071
4.455678 2.268685 26.527584
-0.637544 -4.959187 14.530879
4.990898 0.301557 17.010156
1.595482 -4.738611 91.866283
0.364224 4.986716 14.111426
-4.994998 -0.223598 82.192688
-2.358455 -4.408819 5.216559
3.620118 -3.448876 43.527485
-4.649079 1.840126 58.065321
-1.501296 -4.769288 64.913489
4.984836 -0.389110 32.259773
-3.347503 3.714058 59.477383
0.807502 -4.934363 50.089230
3.531918 -3.539146 94.085737
4.997480 0.158713 34.404114
0.440971 4.980517 68.844705
4.437499 2.304041 2.173239
-3.216603 -3.827984 77.629887
1.274246 4.834904 19.833964
1.506540 4.767634 92.711737
-3.076747 -3.941273 55.329982
-4.751619 -1.556314 17.250263
4.913541 -0.925808 98.650686
-3.978341 -3.028663 1.310920
4.305854 -2.541578 99.224279
2.319653 4.429358 5.404827
1.496515 4.770791 21.075238
-0.460477 -4.978751 10.452971
-1.963549 4.598312 1.192491
0.815672 4.933019 10.094452
4.746351 1.572307 65.722733
4.413299 -2.350062 38.763835
-4.092505 2.872526 1.654624
-0.274936 -4.992435 93.337683
-4.037724 -2.949032 84.468400
-0.421343 -4.982215 39.470624
-1.731634 -4.690570 72.809525
2.348947 4.413893 62.306764
-4.722337 1.643025 2.729293
-2.104912 -4.535344 4.566883
-4.730025 1.620761 30.366207
1.101642 -4.877129 65.634776
-1.490520 4.772667 38.058439
2.895248 -4.076461 23.755024
4.580937 -2.003751 14.978139
-4.354952 2.456500 30.628870
4.262599 2.613474 49.370226
-0.045620 -4.999792 45.630854
3.722488 -3.338126 91.578374
4.752564 -1.553426 60.577430
-2.979566 -4.015244 80.100702
3.602327 3.467455 30.131342
0.241229 4.994177 41.743418
4.942716 -0.754693 80.265090
4.751815 1.555716 81.768468
4.999910 -0.029964 75.398215
-4.339790 -2.483188 60.386145
3.062130 -3.952640 96.056230
-4.723566 -1.639490 29.567958
-0.043818 4.999808 19.858050
2.783356 4.153665 29.378998
-3.191457 3.848974 67.007315
4.402243 2.370708 42.588082
0.327590 4.989257 93.590768
3.831446 -3.212479 3.681975
-4.917515 -0.904459 43.863947
-3.677914 -3.387174 83.481319
-0.867627 4.924147 84.951008
4.190350 2.727814 32.493008
-1.107385 -4.875828 44.423296
-0.851458 4.926969 46.772804
-4.829136 -1.295934 60.859801
-3.121185 3.906175 30.228076
1.316655 4.823528 92.140062
-4.550803 2.071277 17.631221
1.615232 4.731916 22.676469
3.421687 -3.645827 17.525166
1.733976 -4.689704 15.876887
4.480454 -2.219353 25.536193
4.638955 -1.865503 75.120682
-3.233959 3.813333 26.888154
-1.686465 -4.706999 93.961156
-3.232547 3.814530 74.018941
4.243776 -2.643930 43.019656
2.977844 4.016522 24.536988
-1.266194 -4.837019 19.002648
-4.999833 -0.040843 97.758787
-3.971305 -3.037884 97.029170
-4.729916 1.621079 75.385776
-3.185798 3.853660 14.652192
-2.678262 4.222193 78.804505
-0.420256 -4.982307 62.025300
-3.150209 3.882806 70.115919
-4.346381 -2.471633 17.718180
4.814087 -1.350767 1.264173
4.999100 0.094887 99.296852
4.401503 -2.372082 85.662449
4.934144 0.808840 60.667782
0.254038 -4.993542 17.869406
0.171100 -4.997072 56.115682
3.902175 3.126185 19.319079
-1.454199 -4.783859 75.881477
3.343789 -3.717401 67.660866
-4.991865 0.285096 33.287319
-4.421348 2.334883 60.180344
3.877268 3.157023 92.370032
-0.319215 -4.989800 80.268562
4.917143 -0.906477 54.396339
3.367133 3.696270 82.725586
3.336604 3.723852 70.879497
-1.301568 4.827621 14.339882
-4.334624 -2.492195 20.255281
-4.975246 -0.496922 95.472071
-0.778103 -4.939085 75.513075
-0.650208 4.957543 40.931479
4.423071 -2.331617 85.620698
4.902070 -0.984740 46.013878
4.536807 -2.101757 71.602493
-4.241937 2.646880 84.776455
4.942100 -0.758713 49.417310
3.403186 -3.663103 34.063438
1.129254 4.870809 61.806367
1.068993 -4.884389 13.175163
0.200995 -4.995958 55.289796
-4.966956 -0.573886 18.105735
-0.205235 4.995786 95.430906
0.088161 -4.999223 52.509299
-4.069836 2.904553 28.263481
-4.953036 -0.683690 46.572140
4.215919 -2.688126 15.026218
1.206669 -4.852211 10.907613
-3.239828 -3.808348 74.510775
2.823842 -4.126247 62.782286
2.998291 -4.001281 73.912700
4.926003 -0.857024 56.269473
2.590023 -4.276889 37.017201
3.398767 3.667204 31.060909
-4.844632 1.236747 79.637022
-3.874687 3.160190 82.579039
-3.960863 3.051485 13.959625
-3.058539 -3.955419 56.272271
2.840969 4.114474 57.876793
4.081940 -2.887519 71.197777
4.971388 -0.534138 39.598459
-4.270245 2.600963 54.416628
-4.963159 0.605848 7.570376
4.286115 -2.574727 68.609814
2.430302 -4.369626 78.517751
2.772155 4.161149 63.649035
-4.148923 -2.790419 92.490039
-4.394407 -2.385202 14.377421
3.041966 3.968179 37.136730
-0.223018 -4.995024 83.587189
1.137446 -4.868903 20.921878
3.210218 3.833341 65.204930
4.323123 -2.512092 28.609968
-4.649371 -1.839388 95.176165
-4.361084 -2.445598 46.098155
-0.798549 -4.935820 48.570498
2.334144 -4.421739 75.360758
3.565136 -3.505682 80.359882
-1.369196 -4.808877 37.924464
-1.022190 4.894398 71.685035
-1.922698 -4.615542 37.414135
3.001973 -3.998519 83.237778
2.705270 -4.204939 80.054639
-1.016975 -4.895484 82.213785
2.058949 4.556394 71.392449
4.488543 2.202948 94.881305
1.443683 -4.787043 62.927347
2.142064 4.517916 97.615065
1.288386 -4.831155 21.453894
-4.741912 -1.585645 24.451282
4.954003 -0.676647 40.004996
-2.324706 -4.426708 51.976275
0.173651 4.996984 76.543642
2.320278 4.429030 95.484478
4.064821 2.911568 52.171649
-4.728350 1.625640 99.426953
-4.913001 -0.928665 47.266911
4.183559 -2.738217 23.372926
-2.950991 4.036292 43.919387
-2.863734 -4.098662 25.158297
4.100098 -2.861677 33.528581
3.635185 -3.432992 5.786354
4.916766 -0.908521 65.941616
-4.176898 2.748368 52.623669
4.393303 2.387234 15.774318
1.641739 4.722784 71.105068
-1.477695 -4.776653 94.649538
1.830242 -4.652979 21.819861
4.313072 2.529310 0.664167
-3.919304 -3.104683 9.753021
-0.724675 -4.947206 7.095545
1.870331 -4.637010 11.356220
-4.257004 2.622579 48.301384
-4.939302 -0.776723 4.512261
4.977557 0.473207 16.842927
0.786278 -4.937790 31.295316
-4.733742 1.609871 9.331008
-3.563329 -3.507518 11.150312
0.203560 4.995855 44.006267
-2.347400 -4.414716 44.040381
4.569141 -2.030505 93.755602
4.000337 -2.999551 92.909056
-4.454782 -2.270444 24.090382
-2.811914 -4.134385 10.662210
4.050055 2.932073 32.597216
4.999838 -0.040263 4.392194
2.419846 -4.375425 46.464273
-3.347160 -3.714366 34.537840
-4.881829 1.080621 94.494195
-4.707361 -1.685452 42.779642
1.654774 4.718233 26.882039
4.100334 2.861339 12.394923
-4.868901 1.137454 2.876608
0.088170 4.999223 53.653400
-3.363318 -3.699742 98.765080
-4.540910 2.092878 59.531275
0.554172 4.969194 7.835879
3.827957 -3.216636 50.141346
4.736660 1.601267 14.552561
1.149848 4.865989 43.058287
0.539544 4.970804 18.080854
4.748249 1.566567 14.437356
4.455266 2.269494 96.509991
3.791031 -3.260074 59.621915
4.547693 -2.078097 31.062646
-0.464517 4.978376 55.050130
2.030454 4.569164 2.319285
2.379578 -4.397455 99.883738
4.365798 -2.437172 28.191555
4.625408 -1.898841 62.889466
-4.587135 -1.989522 9.801257
-3.574350 -3.496287 13.823612
-4.726032 1.632367 73.637101
-2.199534 4.490217 37.405171
4.895966 1.014652 17.563132
2.600545 -4.270500 92.309458
-0.066682 4.999555 77.627510
0.032212 -4.999896 88.566907
4.723560 -1.639507 7.038166
-4.385667 2.401234 54.262612
-4.995024 -0.223006 32.455160
-0.723343 4.947401 54.459222
0.302884 4.990818 37.281667
4.557627 -2.056219 25.122088
0.184500 4.996595 40.146713
2.310875 -4.433944 58.781959
4.126758 -2.823095 6.390957
4.881313 -1.082949 65.944551
-4.774961 -1.483153 48.834499
4.066389 2.909379 11.375013
3.335189 3.725120 23.772624
4.908164 -0.953900 72.781640
-4.614502 -1.925193 17.021291
0.942704 -4.910327 33.499882
-3.737512 3.321295 86.454128
-3.336464 3.723977 78.040136
-1.591555 4.739932 95.793460
-3.081074 3.937891 64.924067
4.982456 0.418488 14.059399
4.901762 -0.986269 39.495332
1.192286 -4.855765 70.767681
1.742053 4.686710 20.471054
-1.232655 -4.845675 46.051729
4.911267 0.937791 34.995044
-4.348073 2.468656 21.326920
2.558300 4.295940 0.370141
-4.931307 -0.825961 1.013784
2.216178 -4.482026 48.684500
-3.782301 3.270199 7.675682
4.611347 1.932739 49.727327
2.268742 4.455649 72.490239
-4.965272 0.588277 59.215149
-4.934497 0.806682 25.114158
-0.611661 -4.962446 14.337628
-4.765763 1.512450 11.072827
4.242013 2.646758 79.340688
-1.514756 4.765030 29.015163
4.858837 -1.179704 57.231441
-0.540062 -4.970748 34.969148
0.288735 4.991656 78.060251
4.801452 -1.395013 76.238959
-4.828431 1.298557 84.353221
-2.570727 4.288515 86.397817
-4.997486 0.158533 67.288444
1.804451 -4.663041 57.540456
-3.963499 -3.048061 10.203827
2.399549 -4.386589 25.278258
4.646933 1.845538 78.435482
-0.228635 4.994770 53.562609
-1.979174 4.591609 17.133097
3.156660 3.877563 54.720121
4.270463 2.600604 68.891511
-4.999237 -0.087333 86.052747
-2.582040 -4.281713 70.819786
-1.943127 4.606979 62.894241
-4.937090 -0.790658 88.156495
4.953339 0.681491 19.715497
-0.451197 -4.979600 12.907248
0.931873 -4.912394 82.839760
-4.894584 1.021298 93.427719
-2.296587 4.441361 52.278093
-0.885936 -4.920886 35.337040
-0.022202 -4.999951 82.085508
4.520948 -2.135657 36.799072
4.995152 0.220123 89.898802
-2.690665 4.214300 36.145514
-0.589759 4.965097 45.381629
-0.357690 4.987189 70.911994
-4.960553 0.626828 77.529068
-0.149513 4.997764 64.733952
4.464463 -2.251349 92.182375
4.284381 -2.577611 48.052920
1.391533 4.802461 62.943152
1.611074 -4.733333 84.753016
4.935045 -0.803328 96.837863
0.433948 -4.981133 54.890136
-4.712959 -1.669736 16.823863
-0.814499 4.933213 23.717747
-0.771677 -4.940093 61.560618
3.377337 3.686949 68.270602
-3.972992 -3.035677 76.356150
-4.999500 -0.070684 68.744848
-3.646663 3.420796 68.441107
-3.748027 -3.309425 39.616755
-4.978525 0.462916 60.470639
-3.796023 3.254260 58.415001
-1.352887 4.813491 78.180838
0.939449 -4.910951 84.464872
-4.496247 2.187181 30.161733
-3.075190 -3.942488 7.567760
-4.385052 2.402358 97.092995
4.271628 2.598691 99.748594
1.629948 -4.726867 56.603055
-4.949311 -0.710158 62.986798
-3.966326 -3.044381 8.710612
-0.501281 -4.974808 62.528518
4.934955 0.803880 85.327570
-0.369780 4.986307 44.712750
3.072464 -3.944612 71.508197
-1.562067 4.749731 90.933283
4.305866 2.541558 90.291379
4.999832 0.041005 21.720637
-4.134201 -2.812184 21.974173
-4.591526 1.979367 93.181914
4.639445 1.864284 75.649186
2.416167 -4.377458 30.028214
-4.705977 1.689312 97.111447
-2.883202 4.084991 72.957352
0.601810 4.963650 5.636011
1.557424 -4.751256 18.544291
4.999326 0.082104 41.313781
2.197532 4.491197 85.464826
-0.171423 -4.997061 61.236555
-4.323046 -2.512225 59.481862
-4.758586 -1.534880 21.061384
4.984216 -0.396974 28.224934
-4.608979 1.938379 81.699474
-1.270069 4.836003 62.497054
-4.175176 -2.750983 44.651229
1.415878 -4.795340 59.812840
-4.930109 0.833083 23.632752
-1.303156 -4.827192 73.654899
-1.465691 -4.780350 16.436419
-3.838244 3.204354 13.161921
-4.539592 2.095735 30.218054
2.385855 -4.394052 78.597054
4.819626 1.330866 47.046594
4.202357 2.709279 27.782193
-0.915858 4.915405 59.201495
-2.756996 4.171207 16.902796
3.409633 -3.657103 60.600915
3.473999 3.596016 28.399678
3.049115 -3.962688 24.547083
-3.370089 -3.693575 70.450323
2.903921 -4.070288 86.956669
3.434843 -3.633435 55.986510
-3.002230 -3.998326 70.371389
-4.976338 0.485858 27.774692
-1.212323 -4.850801 68.784473
4.506194 2.166614 54.263023
-3.204327 3.838267 72.636909
-0.447934 4.979895 96.402296
-3.324899 3.734307 70.387579
4.349252 -2.466579 62.195717
4.691696 -1.728579 30.002634
3.479219 3.590966 15.381147
-4.070485 2.903645 91.090790
-2.991214 4.006574 85.919784
0.365287 4.986639 30.783644
-0.724613 4.947215 99.824293
4.945645 -0.735254 8.878470
-1.040414 -4.890556 46.762104
4.609415 1.937342 94.877505
-3.962622 3.049202 42.750521
-4.269763 2.601754 9.350808
4.100032 -2.861771 87.487835
4.999685 -0.056156 92.600720
-2.205059 4.487507 91.263007
-3.198632 3.843013 44.908312
-0.767046 -4.940814 14.953642
4.738044 -1.597167 13.302316
-4.884963 -1.066364 91.110618
-3.540736 3.530324 20.282023
-1.786305 4.670023 16.553262
-0.452525 4.979480 47.147246
-3.396733 3.669087 74.451587
4.324394 2.509903 89.805636
-1.459367 -4.782285 14.284907
-4.345935 -2.472417 81.863368
-3.200495 -3.841462 97.475772
-4.953876 -0.677578 43.661091
-3.549052 3.521963 84.716827
-2.411794 -4.379869 22.205814
-0.391738 4.984631 11.851669
-4.603685 1.950919 9.980493
-4.806708 1.376791 43.757893
0.911286 -4.916254 16.016864
1.968563 4.596168 96.328578
4.998562 0.119899 30.428394
3.505465 -3.565349 42.120381
-1.478978 -4.776256 14.849965
4.714792 1.664553 88.089314
4.843737 1.240245 53.514536
-2.754559 4.172817 21.042062
-4.836646 1.267620 36.984209
4.841376 -1.249430 78.314934
-3.200562 -3.841406 39.713753
2.564801 -4.292062 65.975886
-3.304561 -3.752316 77.954819
1.690580 -4.705522 13.312658
1.935676 -4.610115 18.914613
4.998221 0.133362 50.900731
-4.700174 1.705394 6.767718
-3.821164 -3.224702 97.313087
-4.608417 -1.939716 15.724165
-3.699850 3.363199 24.178806
-4.842799 1.243904 72.347390
-2.444041 -4.361956 94.545547
2.104453 -4.535557 89.779120
3.197134 3.844260 34.951987
-0.587830 -4.965325 40.582114
-4.988588 0.337618 76.249455
0.297099 -4.991165 90.421213
-4.989732 -0.320277 80.614826
3.828587 -3.215885 83.136720
-4.049543 2.932781 53.121780
-4.690615 1.731512 55.985306
-4.430945 -2.316619 29.353425
-4.401839 2.371458 1.612826
0.188256 4.996455 23.930414
-0.541751 4.970564 62.337996
-0.719049 4.948027 80.770907
-4.543401 -2.087465 23.827566
3.157485 3.876892 35.954122
3.969364 3.040419 92.451058
1.029705 -4.892822 85.081579
-4.890141 1.042365 54.929477
2.038221 -4.565704 99.972609
-4.260066 -2.617602 14.352608
4.681123 1.757012 27.351238
-4.707155 -1.686028 1.566237
0.607292 -4.962983 13.796117
-3.859390 -3.178854 84.994553
4.893401 -1.026948 6.602390
4.463209 -2.253834 86.193325
4.935585 0.799998 40.034549
0.767681 -4.940715 82.722673
-4.999389 0.078175 60.797301
-4.483438 -2.213320 58.275244
4.977750 0.471171 19.923237
-0.866152 -4.924407 82.635244
4.556172 -2.059441 98.487045
-3.325479 -3.733790 30.866913
-4.828529 1.298195 19.408879
4.690670 1.731362 85.642426
1.738238 -4.688126 33.298464
2.280019 -4.449889 21.683521
4.874356 1.113847 58.774536
4.772339 1.491571 74.728197
3.930149 3.090942 82.206824
-4.823622 -1.316310 78.304242
4.829684 1.293889 47.098581
-4.865091 -1.153641 74.119311
1.816648 -4.658303 13.730862
-2.328643 4.424638 7.682318
-1.680191 4.709242 56.569327
2.490426 -4.335641 3.105126
2.597765 -4.272191 79.755019
-2.949683 4.037248 62.321214
-4.308304 2.537423 34.886408
-4.867448 -1.143655 69.475759
-4.464066 2.252135 66.182862
3.820724 3.225224 22.330907
1.682217 4.708518 47.898400
-1.438514 4.788599 85.979043
0.095881 4.999081 36.112953
1.664346 4.714865 13.123680
-4.987447 0.354074 90.342550
-3.137447 -3.893125 81.020794
0.902368 -4.917899 23.600452
2.309087 4.434875 56.673498
-4.908831 0.950461 65.005654
-4.160258 2.773491 71.788031
-4.285048 2.576503 8.387963
-2.670349 4.227202 96.690450
-3.003375 -3.997466 97.314273
-1.610281 4.733603 66.325925
0.520211 4.972864 65.171839
-3.922300 3.100898 6.826529
-1.210595 -4.851233 17.258360
0.991454 4.900716 63.109125
-0.901251 -4.918104 22.820383
1.581468 4.743307 81.954613
-3.702417 -3.360373 64.012055
-3.139154 -3.891749 17.870674
-4.573383 2.020933 89.236732
-4.718429 -1.654216 12.315285
4.947355 -0.723656 59.847274
-3.120164 3.906991 5.143238
4.903692 -0.976629 87.160776
0.464340 -4.978392 30.569297
4.257454 -2.621847 4.487544
-4.258334 2.620418 35.024386
2.999218 4.000586 19.592572
4.995554 -0.210810 94.718299
-2.032752 4.568142 87.094006
0.912621 4.916007 85.029199
2.691572 -4.213721 62.825205
0.075217 4.999434 76.861833
0.119430 4.998573 48.151722
-3.323681 -3.735391 50.286136
2.407913 -4.382004 77.398676
0.275416 -4.992409 79.180313
1.626334 -4.728111 26.918601
3.823819 -3.221554 80.189406
-2.149905 4.514190 42.348941
4.308359 2.537329 3.049522
2.922560 -4.056926 77.323084
-2.164540 -4.507191 22.870057
-1.146032 4.866889 2.044368
4.886216 1.060608 92.507280
4.504223 2.170709 83.552169
3.552429 3.518557 67.998943
4.987697 -0.350536 69.429921
2.596574 -4.272915 75.407686
-4.553598 2.065125 29.437080
-1.116583 -4.873730 75.705651
-1.963117 -4.598497 52.834221
-4.834421 1.276078 33.476662
4.495965 -2.187761 23.000434
-3.650786 -3.416397 11.859929
-4.629722 1.888298 25.792478
1.845380 4.646996 45.022955
-3.021355 -3.983895 61.077690
-1.664952 4.714651 60.985955
4.669909 -1.786604 19.609302
-1.480227 -4.775869 48.631793
0.017812 -4.999968 31.036807
-0.428519 -4.981603 70.428384
-1.881878 -4.632336 89.131858
0.912102 4.916103 21.511833
-3.182568 -3.856327 75.376870
4.550421 2.072117 20.013490
-4.999985 -0.012407 73.968281
-4.813262 -1.353701 56.889905
-3.226911 -3.819299 42.684216
4.318422 2.520166 72.569991
-2.979734 -4.015120 32.374890
-4.993485 0.255162 51.149490
-2.892099 4.078696 8.513435
-0.058198 -4.999661 86.180420
4.901724 0.986458 91.376902
1.708840 -4.698922 77.050746
4.590330 -1.982139 93.903046
-0.515475 4.973358 8.296044
1.998337 -4.583301 66.465666
-1.953023 4.602793 76.045840
-3.232149 3.814868 49.183841
-4.843432 1.241438 22.186499
-0.900191 -4.918298 16.086625
4.052087 -2.929265 27.828399
0.081409 -4.999337 10.899355
2.021362 -4.573193 2.187154
-3.889173 -3.142345 76.135062
2.249655 -4.465317 99.400351
-4.040267 -2.945546 73.434288
4.885148 1.065517 69.483462
-3.999680 3.000427 9.015653
-0.087522 4.999234 9.158286
-3.985867 3.018752 32.762709
4.663276 -1.803846 66.491688
4.991891 0.284642 71.223092
0.441591 -4.980462 38.726664
-0.526770 4.972174 51.643093
4.803461 -1.388079 70.758092
-1.704012 -4.700675 82.390507
-1.468297 4.779551 23.620562
-4.558634 -2.053986 79.839699
4.393829 2.386266 19.299920
0.745233 -4.944151 14.012653
-3.815602 3.231282 66.873175
3.663293 3.402981 61.031797
-1.716485 4.696135 28.534233
-3.060716 3.953734 72.280043
4.980954 -0.435997 23.362669
3.840664 3.201452 90.725725
-4.999919 -0.028547 0.667725
-2.581878 4.281811 24.495489
-4.215989 2.688017 39.513168
-4.721004 1.646851 45.172784
4.819998 1.329520 85.186995
3.419380 3.647991 60.382447
4.812159 1.357619 28.183645
-2.738320 -4.183491 8.650992
4.380566 2.410526 24.104994
-4.182259 2.740203 31.934779
-3.303448 -3.753296 46.453864
0.654926 -4.956922 41.137903
2.427587 4.371135 89.452276
-3.229638 3.816993 40.918868
4.780304 -1.465841 84.042377
-3.223939 3.821808 15.867689
-2.916486 -4.061294 16.817507
4.983013 -0.411801 94.543853
-1.461003 -4.781785 31.899145
0.747839 4.943757 38.022901
0.833384 4.930058 77.025792
1.027189 4.893351 53.775271
0.322632 -4.989580 40.058630
-3.105589 3.918586 92.292570
-4.387638 -2.397630 91.180464
2.604106 -4.268329 99.153579
4.433430 -2.311861 63.773448
-4.949613 0.708046 58.673982
4.164099 -2.767721 18.784885
-2.124129 -4.526376 70.038489
-4.755027 1.545872 28.429130
-3.910942 3.115209 48.639412
-3.291736 -3.763572 57.292560
2.845149 4.111585 59.259044
-4.544261 2.085592 81.372066
3.148195 -3.884440 74.640901
-0.944681 -4.909947 5.188540
-3.823441 3.222002 78.781114
-2.336544 -4.420471 63.889052
-1.727659 4.692035 43.942814
-3.896019 -3.133853 3.061123
1.525768 4.761516 77.247553
-2.017195 4.575033 93.858774
1.656344 4.717682 46.110139
0.814740 -4.933173 64.521796
0.728240 -4.946682 4.962505
4.255223 2.625467 61.060647
-3.166939 3.869173 50.180544
4.358655 -2.449924 25.515107
3.760693 3.295025 5.210303
-0.387845 4.984935 38.931680
1.682100 -4.708560 60.634694
-3.936284 -3.083127 39.261660
4.536633 2.102132 51.599602
-0.267904 -4.992818 72.538613
-4.523176 2.130935 85.001794
-4.328789 -2.502316 82.815285
2.694192 4.212046 89.830197
3.948646 3.067279 49.972817
-0.933950 -4.911999 71.083077
1.010302 4.896865 47.323909
3.209924 -3.833587 71.136402
-1.323854 4.821557 55.261166
-0.488994 4.976031 94.324368
4.512866 -2.152682 63.054319
3.914572 3.110648 98.991924
2.522633 -4.316981 91.493236
-2.546316 -4.303054 29.098904
-4.802873 -1.390111 71.613856
4.560504 2.049830 80.709737
-4.132979 2.813981 8.492471
1.824609 -4.655191 39.638432
-3.776495 -3.276902 45.018575
-0.418630 -4.982444 9.779293
4.952487 0.687657 20.289994
-4.030251 2.959236 96.847281
-4.492583 -2.194697 90.536326
0.634786 -4.959541 11.687554
4.570848 2.026660 98.886619
-2.745891 -4.178526 69.486922
0.258266 -4.993325 10.341549
-2.104577 4.535499 98.955182
3.100876 -3.922317 92.048866
0.226988 4.994845 40.889283
0.528569 -4.971983 28.065700
1.151415 4.865618 31.530110
4.969443 -0.551935 81.629859
3.731665 3.327864 23.833363
3.347448 3.714107 83.900358
4.804997 -1.382751 55.236976
0.564899 4.967986 85.695344
3.199442 -3.842339 41.867688
4.730909 -1.618178 27.579941
4.179934 -2.743747 76.001890
-4.493311 2.193207 92.953410
4.958047 -0.646349 40.792717
-2.681120 4.220378 73.464262
4.705692 -1.690107 61.590401
2.704659 -4.205332 57.721493
4.980731 -0.438546 1.327276
-1.142689 4.867675 49.362070
-4.364329 2.439801 45.595171
4.517706 -2.142505 65.402286
-0.987349 4.901545 17.830205
4.971824 0.530058 2.705348
-2.531051 -4.312050 71.149269
3.695617 -3.367850 56.615134
-0.053989 4.999709 32.098035
-0.177515 4.996848 21.478700
-4.316294 2.523807 43.596971
-4.596383 1.968060 2.277093
-2.423933 4.373162 62.370194
1.373184 4.807740 59.517240
-3.083401 -3.936069 80.371169
0.312491 4.990225 82.857497
1.942632 -4.607188 32.395078
-3.523521 3.547506 71.935675
3.438426 -3.630045 82.500157
2.808349 4.136808 74.048332
1.036796 -4.891324 22.167312
-4.988753 0.335172 24.141204
-1.111194 -4.874961 1.100055
3.881566 3.151737 11.600758
0.748912 4.943595 28.979288
-4.995754 -0.206014 48.865311
-4.182975 2.739110 40.261883
4.112044 2.844485 91.428153
1.309660 4.825432 81.822318
-1.215974 4.849887 2.460579
-4.364411 -2.439655 43.787545
-4.852639 -1.204948 80.892060
-4.692520 -1.726342 41.713743
-1.875129 -4.635072 24.170076
-4.999806 -0.044044 79.462557
-4.260555 2.616805 93.987776
-4.580742 -2.004196 80.315886
-2.735071 -4.185617 72.590891
3.727384 -3.332658 39.726745
-1.288143 -4.831220 81.958728
-4.034652 2.953232 7.340763
4.805777 1.380040 61.678549
-2.323887 -4.427138 78.182818
4.944682 -0.741702 45.877541
-4.357805 -2.451435 64.648450
4.998327 0.129340 14.030039
4.665264 -1.798698 5.501389
2.155158 -4.511684 28.131325
-0.730863 -4.946295 30.999935
4.908264 0.953387 87.061419
3.663192 -3.403091 74.402326
4.868466 -1.139316 86.296651
-4.999997 -0.005677 99.721358
2.729134 -4.189490 85.882238
4.231310 -2.663834 7.107166
0.610729 -4.962561 33.122904
-4.962069 -0.614712 93.418805
-2.653206 -4.237983 51.177811
-3.863929 3.173335 68.716413
-4.839220 -1.257756 96.515168
-4.503943 2.171290 73.060136
4.905869 0.965634 43.248487
-3.896998 3.132635 66.243132
-4.328142 2.503436 18.778235
4.353812 2.458519 1.947401
1.278065 4.833896 15.489953
3.887372 3.144573 69.778588
-0.770088 -4.940341 93.598159
4.590612 1.981485 37.826260
2.225916 -4.477197 63.503416
-0.343079 4.988216 6.619602
0.622562 4.961090 61.206169
-3.358938 -3.703719 53.115251
4.082339 2.886954 29.794850
4.042395 -2.942625 67.079972
-1.140354 -4.868223 83.505381
4.976624 0.482925 57.614981
2.007438 4.579322 67.798469
-1.111891 4.874802 13.100800
2.281671 4.449042 27.074727
4.074990 -2.897319 22.800374
4.613994 1.926412 11.210458
4.643366 -1.854494 63.042728
3.088016 -3.932449 76.186752
4.562027 2.046439 71.394269
3.205442 -3.837335 85.419979
-2.021032 -4.573339 52.376681
4.992349 -0.276505 42.360719
-1.487687 4.773551 28.257996
-4.988156 0.343948 74.313488
-4.978131 -0.467127 8.185708
4.738248 -1.596559 46.626884
-1.458264 4.782621 72.051124
4.004242 -2.994336 54.769671
4.026337 -2.964559 57.249633
4.993153 -0.261577 73.844035
-4.804989 -1.382779 76.827693
1.333770 4.818823 64.526455
4.908705 -0.951112 81.500139
4.749518 1.562717 70.151438
4.707244 -1.685779 61.802441
-0.075674 -4.999427 93.891811
4.852870 1.204013 1.665317
-2.656911 4.235661 97.637548
0.782495 4.938391 59.699759
-4.020538 -2.972418 69.809155
3.998740 -3.001679 75.687454
-4.985654 -0.378486 86.265972
-3.918637 -3.105524 5.564298
4.569178 2.030421 63.120073
4.125544 2.824869 76.081793
-4.991913 0.284265 18.321414
2.289005 -4.445273 29.609421
3.292733 3.762700 11.437389
-3.667582 -3.398359 7.245101
-0.065313 4.999573 35.227924
4.669485 1.787710 28.177279
-3.816849 -3.229809 48.097373
-3.320894 3.737868 45.012814
-0.232700 -4.994582 51.912077
-4.914558 -0.920389 37.020602
-4.950247 -0.703604 7.900231
4.741918 1.585626 61.408872
4.640848 1.860788 19.649409
2.133394 4.522016 92.474361
-0.116011 4.998654 78.828918
-4.381994 2.407930 62.845849
-1.364766 4.810136 97.735783
3.807540 -3.240778 49.137254
-1.355270 -4.812821 60.426185
0.778532 4.939017 64.163069
-2.454976 -4.355811 28.346949
-4.553938 2.064377 29.951343
-1.509046 4.766842 25.998764
-4.984533 -0.392973 52.725400
-4.198312 2.715544 8.210189
4.856148 1.190725 23.164303
-4.778902 1.470407 49.139233
-2.730929 4.188320 58.524179
-0.393122 -4.984522 35.164829
3.420787 -3.646672 43.597737
-2.721054 4.194743 12.527404
-4.412029 -2.352445 47.049527
1.437611 -4.788870 61.261499
0.471229 4.977745 2.473375
1.877311 -4.634189 90.989201
1.218660 4.849213 21.156385
-4.879180 1.092520 1.044361
4.486809 -2.206477 85.280382
3.312810 -3.745036 95.714867
4.447059 2.285535 45.110672
4.951033 -0.698050 57.021545
-0.673435 -4.954441 48.082576
3.259325 3.791675 51.607402
4.690520 -1.731769 48.814097
-0.431238 4.981369 1.581873
-4.645640 -1.848792 41.085357
-4.603951 1.950291 7.619306
-4.997181 -0.167874 26.122640
2.447150 -4.360213 54.062647
4.989289 0.327098 12.856703
4.009252 2.987624 87.735005
-4.863236 -1.161435 43.374066
-4.614417 -1.925397 53.641468
-4.524465 -2.128196 6.536938
2.923642 4.056145 24.897944
-3.346201 3.715230 1.353063
4.702632 1.698603 36.430317
4.566686 -2.036020 78.639161
-3.097992 3.924595 39.105404
-4.992332 0.276812 15.919074
-0.698638 -4.950950 19.634895
2.578913 -4.283598 50.251200
0.802978 4.935101 85.099812
-4.802524 -1.391318 4.366796
0.840894 4.928783 43.951576
4.951073 -0.697769 5.259211
-0.360623 4.986978 34.737706
4.998793 -0.109849 40.792577
-0.039657 -4.999843 66.228049
-4.979285 0.454671 56.571774
2.935974 4.047228 49.381883
0.852854 4.926727 25.612629
0.328903 -4.989171 27.701369
-4.368608 2.432131 88.921771
3.467790 -3.602004 83.646606
-2.220858 -4.479709 1.792785
-4.215714 -2.688448 95.335114
-3.895579 -3.134400 86.500966
4.996477 0.187658 82.505227
4.754790 1.546600 67.563715
-3.885124 3.147350 34.054284
3.116977 -3.909534 45.172599
-3.767685 -3.287028 36.151185
2.927314 -4.053497 43.586221
1.757773 -4.680837 87.294208
-3.900673 3.128059 40.692062
-2.096154 -4.539399 48.175277
-3.042122 -3.968059 94.471608
-0.591362 4.964906 10.080504
1.152259 -4.865419 74.875433
-1.805962 -4.662457 92.813660
2.892208 4.078619 69.126957
3.609196 -3.460304 1.816827
1.224194 -4.847819 24.067732
3.623649 3.445165 80.087116
2.851713 -4.107035 52.287921
0.362224 4.986862 26.607663
1.989358 4.587206 22.246928
4.252115 -2.630498 70.147583
4.145996 2.794766 63.216935
4.008823 2.988200 31.499772
-0.410648 -4.983108 90.587708
4.285657 -2.575490 88.061503
-2.852787 4.106289 25.116617
-3.913854 3.111550 82.637376
-4.951151 -0.697211 94.395850
-4.714443 1.665542 0.603983
4.770721 1.496737 71.130255
1.822628 4.655967 8.082028
3.936894 -3.082348 0.823856
2.379839 -4.397314 86.105323
4.457153 2.265787 4.845575
-4.180293 -2.743202 32.451513
-2.960909 -4.029022 46.721480
-0.682250 4.953235 23.226068
-3.492899 -3.577660 25.013579
-4.900828 0.990899 35.569803
4.861834 -1.167291 38.464812
4.674606 1.774277 17.409474
-3.151496 3.881762 34.424891
-1.929530 -4.612691 2.533407
-2.317356 -4.430560 49.433302
-3.110942 3.914337 67.331724
2.029241 -4.569702 52.419972
-4.433665 2.311410 3.245474
-4.869476 -1.134992 18.039355
-0.075034 4.999437 68.422211
-1.140510 4.868186 89.923183
-4.658211 1.816885 74.266120
-3.370192 -3.693482 51.543154
3.275460 3.777746 14.116521
4.985527 0.380158 48.200652
-2.818519 4.129885 79.382949
-3.431075 -3.636994 10.258629
-2.684264 4.218380 18.527029
4.981495 -0.429780 36.173814
4.052881 2.928166 41.003747
-0.399299 -4.984031 12.913557
2.669133 4.227970 50.900723
-2.738282 4.183517 71.459208
-4.626405 -1.896412 6.362685
-4.625480 1.898666 52.553613
3.145914 -3.886287 20.664877
1.832186 4.652214 58.638528
1.510522 -4.766374 21.194909
-3.213130 -3.830900 8.276681
1.959212 -4.600162 11.706174
0.259435 4.993265 67.300269
4.401731 -2.371658 3.082120
-4.603867 1.950490 33.468888
-4.972570 0.523020 11.908050
-2.759126 -4.169799 64.197594
-4.530351 -2.115638 8.519615
4.997944 0.143364 33.279011
-4.772398 -1.491381 28.833060
-1.325426 4.821125 55.772497
-2.588004 -4.278111 94.817577
1.676459 -4.710572 23.276949
2.573600 -4.286792 93.361937
-0.462280 4.978584 86.736367
-3.250500 3.799243 77.447237
-0.573286 4.967026 56.617222
1.443137 4.787208 58.369232
-1.295124 -4.829353 61.670650
2.795696 4.145369 58.947598
-3.093981 -3.927758 24.114295
4.952819 -0.685263 77.167813
4.467487 2.245341 64.309149
4.860701 -1.172002 2.306054
3.474549 3.595485 38.064721
2.897350 4.074968 39.611377
4.569161 -2.030459 28.561418
-0.296072 4.991226 16.667338
-4.875403 1.109253 50.228017
3.803448 -3.245579 99.320920
2.054905 4.558219 55.292113
1.919083 4.617047 38.588435
4.749679 -1.562225 75.316491
-4.818697 -1.334225 22.504003
-4.360450 -2.446727 16.041273
4.781252 -1.462749 0.599989
-4.390540 2.392312 93.008770
4.443420 -2.292602 99.640797
4.232667 -2.661678 88.066285
-4.991403 -0.293080 19.026646
3.710359 3.351603 60.632983
3.421869 -3.645657 98.196773
3.425678 -3.642078 3.112252
-3.587300 3.482998 17.135562
2.401020 4.385784 83.596758
-3.397912 3.667996 25.072896
0.669397 4.954988 65.751228
-1.092116 -4.879271 58.218893
-3.131715 3.897738 25.854618
1.364351 -4.810254 26.270133
-1.200153 -4.853827 26.912594
-4.382733 2.406585 71.673939
2.886293 -4.082807 34.947971
0.224043 4.994978 22.240847
0.354149 -4.987442 71.884558
-2.369949 4.402652 91.119053
