x y z
4.886039 -1.061423 5.181631
0.568062 4.967626 74.235317
2.795855 -4.145262 45.306334
-2.319764 4.429300 64.563648
-0.327817 -4.989242 37.915459
-0.833959 -4.929961 10.603413
2.847340 4.110067 20.003662
2.323991 4.427083 92.904237
-3.350365 -3.711476 85.942812
-3.532193 3.538872 96.995435
4.958147 0.645587 45.752326
-0.574788 4.966852 30.584057
3.156631 3.877587 74.059332
2.549961 -4.300895 49.351328
3.806156 -3.242403 6.577229
-2.829715 4.122222 58.350757
0.011826 -4.999986 94.808284
-3.606849 3.462750 89.354050
3.404229 -3.662134 77.347506
1.684259 -4.707788 59.966354
-4.999305 0.083393 96.316518
-4.942084 -0.758821 40.628867
-3.812381 3.235082 26.997011
-2.482650 -4.340098 46.662783
3.406703 3.659833 34.639921
-4.646420 1.846830 14.002185
3.092231 3.929136 27.272311
-2.837792 4.116666 72.501088
-4.137466 2.807379 8.415621
-4.673968 1.775957 2.504388
1.433320 -4.790156 43.930344
4.581546 -2.002358 2.761910
4.947858 0.720207 66.263324
-4.025134 -2.966193 99.756915
-3.230377 -3.816368 42.455033
2.729613 4.189178 5.716352
4.259371 2.618732 30.552741
-3.778074 -3.275082 24.293160
3.287972 3.766861 5.363619
-4.489331 -2.201342 69.001061
3.006433 -3.995168 54.381874
4.246291 -2.639889 7.219843
-4.421473 2.334646 7.899734
4.730266 -1.620055 68.844716
-4.629582 -1.888643 96.057442
-4.958442 0.643311 34.897514
-4.995836 0.204017 88.901289
-4.838043 -1.262274 27.852020
2.511072 4.323716 35.811682
2.092964 -4.540870 93.761759
-4.287153 -2.572999 64.022875
2.031564 4.568670 80.450585
2.697453 -4.209958 81.365475
2.755696 4.172067 25.050313
-0.941138 -4.910627 85.880023
-0.802587 4.935165 17.911603
-3.476124 -3.593962 9.818156
-1.521116 4.763004 89.335965
3.270247 3.782259 20.441737
1.902043 4.624093 70.961055
3.278798 -3.774849 94.355287
4.491611 -2.196686 30.915129
-4.855371 1.193889 2.849465
1.877281 4.634201 68.502391
-4.971516 0.532942 65.028319
-2.257749 4.461230 21.505284
-3.286073 3.768518 45.318502
4.528554 -2.119480 97.402400
-3.086236 3.933847 17.866497
-4.990627 0.306002 45.033180
3.922144 3.101095 72.429876
1.831945 4.652309 2.203753
1.262472 4.837992 80.183325
4.991115 0.297940 27.585200
-0.259420 4.993266 29.658257
0.803272 4.935054 77.797711
-4.427392 -2.323402 70.987467
1.549317 -4.753905 3.917570
4.620358 1.911096 25.002933
-4.552256 2.068082 12.953701
0.367924 4.986445 56.667170
-0.891154 4.919944 85.836977
4.776291 1.478865 30.064551
0.737802 -4.945265 28.556985
4.592894 -1.976189 1.494282
2.104788 -4.535402 75.371929
-2.817895 4.130311 19.512283
-3.458698 3.610735 72.227997
-4.975401 -0.495360 96.939750
4.415363 2.346182 59.485155
1.038942 4.890869 9.626845
4.564735 -2.040391 10.827454
4.854138 -1.198892 4.676865
-0.487959 -4.976133 14.779273
0.257722 -4.993354 79.205000
-1.229904 4.846373 61.426490
0.567510 4.967689 36.847035
2.538084 4.307914 94.303010
-4.769185 1.501625 80.662566
-1.360178 -4.811436 33.988912
-4.332971 -2.495067 15.721611
0.813795 -4.933329 88.555255
-2.406594 -4.382728 28.386399
-2.728486 -4.189912 30.023475
-2.724919 -4.192233 85.206712
4.901306 0.988536 28.667941
-1.785870 4.670189 52.074876
-4.640223 -1.862346 33.035176
4.754136 -1.548608 62.496537
2.536429 4.308890 58.288407
-3.627754 3.440843 59.603093
-1.845130 4.647095 24.825119
-3.044297 3.966391 49.324840
3.928586 -3.092930 5.726649
-3.578045 3.492505 87.056283
-4.150693 -2.787785 91.299598
-4.998548 -0.120478 39.742512
-1.266245 4.837006 54.047525
-4.885181 -1.065365 69.333499
-1.367403 4.809388 72.572371
2.824251 -4.125967 28.450598
-4.967867 -0.565952 19.343670
2.699906 4.208385 50.493649
-1.068324 4.884535 67.840776
4.843825 -1.239904 11.127601
4.626251 1.896787 52.106705
-2.258858 -4.460668 68.887737
1.573599 -4.745923 94.016353
1.675813 4.710801 79.065591
-2.708451 4.202891 45.081131
4.821998 1.322247 0.572749
-0.315584 -4.990031 63.103436
3.823199 3.222290 21.662707
4.729931 -1.621035 58.437762
2.812306 -4.134118 53.658634
-1.711134 4.698087 31.847723
-4.641424 -1.859351 37.534390
4.978743 -0.460560 26.402057
-2.248672 -4.465812 34.780521
4.408501 2.359051 25.383925
1.567409 4.747971 9.947589
3.987064 3.017171 93.742177
-4.951941 -0.691579 50.260572
1.737311 4.688470 97.189576
0.226412 -4.994871 49.996620
-4.996250 -0.193609 54.901903
4.869883 1.133243 7.866770
3.116352 3.910032 59.973758
4.998475 -0.123494 14.344343
-4.982344 -0.419817 16.051692
-4.069498 -2.905028 90.364771
2.835477 -4.118260 31.616675
2.445966 -4.360877 53.430521
2.961579 -4.028529 34.159116
1.615697 -4.731757 72.553858
-0.869435 -4.923828 58.528513
-4.542662 -2.089072 12.219498
-1.753612 4.682397 26.426234
4.484223 -2.211728 35.806149
-4.995107 0.221140 19.688461
0.087409 -4.999236 52.806426
-0.588673 4.965226 64.276029
-2.653972 4.237503 40.878176
3.854978 -3.184202 39.691076
3.250203 3.799498 84.786851
0.558814 4.968675 55.821548
4.397872 2.378807 15.347181
4.124142 2.826916 81.982672
3.267996 -3.784204 75.426169
-0.220081 4.995154 44.396991
3.838150 -3.204467 39.636811
3.937891 -3.081074 84.357773
2.812020 4.134313 21.742055
-4.046933 -2.936380 67.766408
-4.665822 1.797250 63.289697
-3.614347 -3.454923 32.840365
-4.221015 -2.680119 91.586139
-4.658416 1.816359 98.692989
2.090639 -4.541941 27.307425
-4.254776 -2.626191 86.097786
4.731562 1.616267 28.355955
3.256380 3.794205 80.009665
4.980461 0.441594 50.149437
4.715006 1.663946 96.204040
0.479488 4.976956 83.692355
-1.007466 -4.897450 88.969886
0.075421 -4.999431 85.505159
4.867739 1.142417 12.616201
-4.720171 -1.649239 17.667519
-4.827866 -1.300659 72.331132
3.972093 3.036853 65.981700
2.369243 -4.403032 21.095004
3.674551 -3.390822 22.219552
-3.383934 3.680896 90.391561
4.528396 -2.119818 25.987230
4.521073 2.135393 0.213714
2.961060 -4.028911 3.532195
-2.542621 -4.305238 46.611604
-4.501931 -2.175458 15.625384
4.415824 2.345314 25.793639
-3.517565 -3.553412 55.598560
-2.112745 4.531701 9.011807
2.758864 4.169973 63.668932
-0.771251 -4.940159 49.406129
4.591733 1.978886 20.461600
-4.866269 1.148661 94.416939
4.953688 0.678950 21.576361
-4.888722 -1.048996 68.932360
-1.196613 4.854700 44.312225
-4.524682 2.127734 64.387190
-4.482017 -2.216196 32.039750
3.760192 3.295597 70.945088
1.574471 4.745634 54.770440
-1.520688 4.763140 61.135717
3.292049 3.763298 5.344362
-4.174102 -2.752611 91.897996
-4.975371 0.495668 88.727341
4.270782 2.600081 88.300538
4.292462 -2.564132 89.144163
-4.952381 0.688418 38.082233
4.320179 -2.517152 47.097073
4.722181 1.643473 37.132436
4.938801 0.779899 41.331157
-1.188909 -4.856593 83.595496
3.615343 -3.453881 78.072452
3.035445 3.973169 64.348743
-4.673130 1.778162 79.595917
-4.166936 -2.763448 28.399686
4.911277 0.937743 65.807780
4.408951 2.358209 98.512398
2.512869 4.322672 94.139240
-4.143872 2.797915 16.949603
1.149636 -4.866039 19.424423
1.026858 4.893420 8.665600
-2.271161 -4.454417 44.793763
2.830251 -4.121854 15.191900
-4.562453 -2.045489 58.882498
-4.077218 -2.894183 87.149390
4.489068 2.201879 14.047637
-0.371748 4.986161 88.029498
-3.942840 -3.074738 86.193525
-2.574826 -4.286055 46.769268
-0.370895 4.986225 45.582621
-3.881456 3.151872 81.662515
-2.496096 4.332379 50.825872
-4.937773 -0.786380 8.321076
-0.259403 -4.993266 51.276956
-4.998095 -0.138009 10.349524
-1.418904 -4.794446 90.361830
2.435690 4.366625 19.596880
-1.048691 4.888788 96.850840
-0.284348 -4.991908 82.886878
-4.059447 2.919057 65.041113
2.214829 4.482692 78.479795
0.169768 -4.997117 49.748483
-4.999932 -0.026081 50.270220
-4.996383 -0.190138 57.427396
4.952156 -0.690036 56.809018
0.419655 4.982358 64.573156
-4.892615 -1.030688 41.906120
0.963899 4.906210 95.603713
4.699807 -1.706405 62.265871
-2.441828 4.363196 66.259651
3.618905 3.450149 83.222592
-4.283257 -2.579478 10.308030
-4.999917 -0.028725 28.839816
1.226797 -4.847161 88.459573
-3.003119 -3.997659 33.638212
4.925375 0.860629 49.151238
2.836496 -4.117559 65.935873
3.741438 -3.316872 98.022276
-1.882799 4.631962 7.684605
4.166906 2.763493 40.191116
-2.007768 -4.579177 52.157055
4.993392 -0.256981 31.191394
-4.796017 1.413583 33.211153
4.238583 -2.652246 12.471523
-2.174719 4.502288 66.742970
3.814148 -3.232998 68.679879
-2.027001 4.570697 92.927216
-0.113542 -4.998711 15.849413
4.961648 -0.618098 72.160324
-2.117251 4.529597 24.210259
-3.592732 3.477395 69.898079
-2.198693 -4.490629 23.417169
3.828201 -3.216346 80.333118
-1.346992 -4.815144 87.941646
3.005942 -3.995537 91.330443
-3.604884 -3.464796 69.157027
-2.273892 4.453023 5.223258
2.205147 -4.487463 42.303652
-3.357006 3.705471 56.447464
-3.458163 -3.611247 28.029012
-2.984949 4.011244 96.538405
-1.481594 4.775446 35.621821
4.829455 1.294746 48.378980
-2.758636 -4.170123 11.017115
-4.535485 2.104609 38.137680
0.485472 4.976376 5.791502
4.282532 -2.580682 48.422048
-4.989126 -0.329580 94.325400
4.668204 1.791054 73.983054
-0.570597 4.967335 2.381757
0.003881 -4.999998 44.148108
-4.993251 -0.259697 20.288873
-1.344863 -4.815739 23.537359
1.000024 4.898975 2.759671
-4.556728 2.058210 30.234630
3.934921 -3.084866 85.285076
4.221457 2.679422 88.858852
-3.613654 -3.455648 89.729138
4.680189 -1.759498 95.401068
4.985409 0.381702 18.696904
-4.456109 -2.267838 88.591831
-2.557046 -4.296686 57.334231
4.643836 1.853319 11.983600
3.533433 3.537634 25.207823
-4.361406 -2.445023 13.251544
-3.763191 -3.292171 74.215956
2.387633 -4.393086 89.274255
2.006586 4.579695 33.153961
-2.886763 -4.082475 25.876373
1.450074 -4.785111 10.544281
4.741826 -1.585902 0.568473
4.957327 0.651848 63.477006
-2.311134 -4.433809 98.597372
2.954680 4.033592 38.466161
0.792465 -4.936801 97.872992
3.838042 3.204596 40.632442
-2.793566 4.146805 86.757178
4.895477 -1.017008 38.263400
-4.994093 -0.242973 67.956257
2.481605 4.340695 34.153083
1.846367 -4.646604 51.196035
4.557344 -2.056847 10.321853
-2.710836 4.201353 92.922209
4.862348 -1.165149 77.582131
1.713086 -4.697376 90.967804
4.912780 0.929837 74.402209
-4.568219 2.032579 14.324793
4.209156 -2.698705 64.095114
-4.378249 2.414732 84.811403
-4.627228 1.894404 38.170109
-4.405237 -2.365140 25.856057
-3.488279 -3.582166 80.793843
0.982719 4.902475 45.606803
2.117604 -4.529432 48.349290
-2.272587 -4.453689 75.251641
2.408654 -4.381597 90.623394
-4.999871 0.035905 57.333750
1.701766 -4.701488 51.524862
4.860624 -1.172321 31.491403
0.898282 4.918647 21.848356
-4.520351 2.136920 5.671772
-3.893262 -3.137277 86.266208
3.849106 3.191298 19.913016
-4.667098 1.793932 94.570977
-3.676570 -3.388633 97.649502
-2.707378 4.203583 87.894211
0.684811 -4.952881 80.952412
3.186111 -3.853400 50.504632
2.033351 4.567875 20.407764
-4.140387 -2.803070 8.052507
-4.999891 -0.033064 22.237716
4.984298 -0.395948 45.404734
4.669865 1.786717 39.128893
-1.846365 4.646605 63.472613
-2.688751 -4.215521 42.882764
-4.967996 0.564812 77.613838
4.946027 -0.732679 43.011500
-3.289594 -3.765444 15.969040
-4.578994 2.008187 27.701439
-3.497744 -3.572924 50.520450
-4.997081 0.170834 93.648936
-4.339645 -2.483441 41.074277
4.181376 -2.741550 3.569958
-3.589889 -3.480330 21.181757
-3.957232 -3.056193 16.993714
-4.545620 2.082628 16.513987
3.551466 -3.519529 92.203354
4.586600 -1.990755 3.748553
-3.335525 -3.724819 73.512921
3.925422 3.096944 48.837545
2.101256 4.537039 34.361420
-3.431593 3.636505 10.853881
-4.842737 -1.244144 43.806260
-3.761212 -3.294433 81.689686
-4.915752 -0.913994 32.297854
4.996797 0.178953 63.943737
-4.214513 2.690331 1.522332
-0.846798 -4.927772 70.191668
-3.582613 -3.487819 64.683803
4.970618 -0.541258 82.742902
-0.678873 4.953699 78.507054
-4.793753 1.421244 60.515851
-2.384631 4.394717 81.984638
-4.007827 -2.989536 96.668831
-2.312451 -4.433122 56.212432
3.348472 -3.713184 21.442798
2.084517 4.544754 14.178189
-2.882338 -4.085600 7.437549
-0.967841 -4.905434 43.426391
-1.313852 4.824292 16.337751
2.066876 -4.552804 69.797878
-1.909414 4.621054 31.055958
-4.550620 -2.071681 93.277574
-3.767894 3.286788 8.203819
4.990476 0.308461 8.363605
-4.978535 0.462802 61.144030
-4.277721 2.588648 14.082323
-4.827273 -1.302857 39.855413
-4.825071 1.310989 59.122534
-0.848500 -4.927479 21.324316
-2.635562 4.248978 50.346302
-4.999980 0.014008 58.225500
-1.307511 4.826015 9.850216
3.479901 3.590305 29.193213
-1.520891 4.763076 3.394114
-0.406339 -4.983461 5.127148
1.646407 -4.721159 45.776928
-3.371314 3.692458 17.001390
4.794703 -1.418035 79.045151
4.902202 0.984084 59.813470
-4.844249 -1.238244 22.603909
-1.663993 4.714990 55.472001
4.974741 0.501944 86.996368
4.999905 0.030887 0.324275
4.183723 -2.737967 6.298848
3.931126 -3.089700 99.287685
4.998962 0.101859 74.395016
4.607794 -1.941194 90.018047
3.277564 3.775920 55.210947
2.542976 -4.305029 14.896113
-4.513915 2.150481 14.525732
-3.499541 3.571164 37.210509
3.745397 3.312401 24.378453
-0.858926 -4.925672 24.053578
-0.193379 4.996259 27.104973
-4.912621 -0.930672 81.717006
4.999165 0.091366 0.058460
2.177543 -4.500923 46.974562
1.061595 4.886002 47.910594
-3.572666 -3.498008 97.881683
0.053027 4.999719 44.504521
4.998695 -0.114231 99.025325
-1.941896 4.607498 56.584636
4.836120 1.269622 20.354699
-4.051447 2.930149 51.398528
-0.031576 4.999900 8.298140
3.623058 -3.445788 58.062797
4.950984 -0.698397 74.807917
-4.816697 1.341429 62.091985
-3.058536 -3.955421 50.210687
4.549353 2.074462 93.699552
-0.635951 -4.959392 38.055763
0.106392 -4.998868 79.114638
-4.179856 2.743866 82.687937
4.750648 1.559276 99.595997
3.353465 3.708676 90.332635
2.867232 4.096215 83.948428
-1.049677 4.888576 6.803368
-4.278825 2.586823 26.224784
-0.210446 -4.995569 62.918902
-4.027057 2.963580 30.414684
3.542702 3.528351 76.125634
1.505329 -4.768017 24.938565
0.369194 4.986351 31.283760
-3.309889 3.747618 43.671319
-2.713654 4.199533 8.728462
-4.648483 -1.841631 13.726918
4.691542 -1.728997 25.357319
-4.381497 -2.408834 15.062691
0.850483 -4.927137 80.982185
-4.780975 1.463654 87.058378
-4.950165 0.704175 5.314631
-2.435569 -4.366692 21.006953
-1.982839 4.590027 93.415574
-2.715183 -4.198545 40.871853
4.999616 -0.062004 1.526738
-4.608340 -1.939897 96.864113
-4.333119 2.494811 33.566370
4.722301 1.643128 72.033914
4.780529 -1.465107 66.214139
-1.794771 -4.666776 6.971520
4.307294 -2.539137 88.083672
-4.343372 2.476918 13.697199
-3.738108 -3.320625 48.505543
-2.604022 4.268380 87.431566
-4.698046 -1.711247 96.147094
-1.165776 -4.862198 6.195752
4.810108 -1.364866 56.200556
2.007013 4.579508 96.949528
-2.106331 -4.534685 12.839846
-4.044470 2.939773 41.585618
4.994595 0.232433 26.384331
-4.951449 0.695094 73.076714
-4.766713 1.509454 96.285916
-0.496262 4.975311 44.544052
-1.455426 4.783486 85.075996
4.168666 -2.760837 32.498227
-2.534863 -4.309811 62.667166
-1.816342 -4.658423 97.170031
-0.724589 -4.947219 11.853969
-1.993894 -4.585236 78.877283
-4.466675 -2.246958 77.108290
-4.936839 -0.792226 38.788343
0.866350 -4.924372 46.521843
0.022266 4.999950 78.515680
-4.961646 -0.618120 71.159373
4.935149 -0.802686 3.742967
3.469133 -3.600710 25.209160
-4.636306 -1.872074 71.547512
4.773669 1.487306 12.655683
-2.311052 -4.433852 39.143200
-4.517030 2.143931 76.800857
-4.979677 -0.450348 62.182342
-2.477170 -4.343228 2.410304
-1.526884 4.761158 36.855258
4.973469 0.514397 76.565500
-4.570202 -2.028117 1.395389
4.588313 -1.986802 27.454568
-3.212941 3.831059 94.725734
4.239760 -2.650365 5.560606
2.953870 -4.034185 82.959554
-0.897481 4.918793 7.549131
-4.826829 -1.304499 3.177690
-1.262630 -4.837951 42.899536
1.515513 -4.764790 99.496598
-0.724057 4.947296 89.488565
-0.510173 4.973904 10.563226
4.923839 -0.869372 82.860875
-2.902039 -4.071630 87.841424
-0.073115 -4.999465 31.607328
4.995691 -0.207536 74.632758
4.657588 -1.818480 73.892573
0.602628 -4.963551 95.166328
4.996651 0.182980 17.207738
-4.364335 -2.439791 94.356888
4.647990 -1.842874 16.316551
4.423302 -2.331180 73.338017
-4.949011 -0.712245 13.807961
1.230359 4.846258 54.552463
4.986999 0.360338 28.820900
4.990597 0.306502 21.270934
-3.137290 -3.893252 34.717662
-2.671997 -4.226161 17.540147
-0.087309 -4.999238 89.480162
-3.528633 3.542421 51.454643
-1.863085 -4.639926 34.917675
4.687559 1.739766 79.652849
4.817579 1.338256 52.967228
-3.732205 -3.327258 25.662560
-4.877750 -1.098886 54.311849
4.995449 0.213281 15.591659
-0.264817 4.992982 33.842136
-3.779093 -3.273906 34.308403
-4.998540 0.120822 70.852655
-1.396755 4.800945 37.781895
4.924772 -0.864072 78.641710
-2.224238 4.478031 55.336041
4.661799 1.807659 32.777863
4.440112 -2.299001 19.301782
-3.236972 -3.810776 69.237934
0.971943 -4.904623 62.258340
-4.534913 2.105840 15.638125
2.774427 -4.159634 44.934595
-1.172313 4.860626 46.999996
-4.894585 1.021291 19.306818
3.345773 -3.715616 98.715830
-4.213137 2.692485 65.937286
-4.390589 2.392222 5.982254
4.945606 0.735515 56.335690
-3.731610 3.327925 17.189018
2.105546 4.535049 83.201798
-3.197023 3.844352 57.882043
4.457842 -2.264430 67.377915
4.782151 1.459805 70.396581
2.532727 -4.311066 75.247541
-3.633136 -3.435160 56.029855
-4.056373 2.923326 91.661405
4.188988 -2.729905 35.158530
3.276213 -3.777092 86.135038
2.268700 4.455671 94.327623
-2.743777 -4.179915 22.410428
-4.570192 -2.028139 19.429820
-2.025912 -4.571179 64.890236
4.969830 0.548443 46.765129
-0.064895 4.999579 4.293935
-0.811678 -4.933678 75.460935
-0.154529 4.997612 9.472909
-3.067748 -3.948281 60.492490
-4.935983 0.797544 38.410098
-2.645422 -4.242846 57.802888
-1.186634 -4.857149 27.181314
-3.786300 -3.265568 44.009618
-3.808825 3.239268 25.028659
-0.270522 4.992676 15.902092
-4.818912 -1.333451 16.873359
-4.320496 2.516608 30.963661
4.716364 1.660093 13.777418
-4.055277 2.924847 6.506030
-4.991971 0.283235 5.259975
4.402546 -2.370146 84.818380
-4.008459 2.988689 75.910382
-1.769254 -4.676510 36.804638
4.899105 -0.999387 21.675747
-1.220185 -4.848830 4.191374
-4.092596 2.872396 98.023220
3.229566 -3.817054 89.833910
-3.676111 3.389131 81.245106
-4.109073 -2.848775 51.779470
0.786068 -4.937823 31.285501
4.869729 -1.133906 97.075690
-4.956976 0.654517 64.154196
2.193188 -4.493320 80.567520
-3.079769 -3.938912 41.273919
-4.917037 -0.907056 58.328158
-1.935653 -4.610124 59.782107
4.971350 0.534487 66.389177
-4.999193 -0.089830 7.113652
-4.114507 -2.840921 66.585646
-0.759109 -4.942039 70.592899
2.966210 4.025121 16.881663
-3.771412 -3.282751 96.373152
3.951602 3.063469 44.258835
4.577315 -2.012010 52.369706
3.816784 3.229885 36.292062
4.079535 2.890916 78.733669
-4.994270 0.239299 53.925505
-4.192413 -2.724642 23.881472
4.999593 -0.063833 23.360813
3.327825 3.731699 40.412685
-3.720104 -3.340782 95.910346
-3.402482 3.663757 45.946874
1.984889 -4.589141 70.178216
-3.351893 -3.710096 52.057164
2.691939 4.213486 33.145172
3.043980 -3.966634 60.823111
3.775413 -3.278148 96.852738
-4.629666 -1.888438 44.547960
-4.720151 1.649295 22.089532
-4.860886 -1.171234 63.394125
4.989978 0.316423 92.316768
2.995947 4.003036 79.758232
0.801149 4.935399 56.931361
2.236952 -4.471694 32.806546
4.957919 0.647330 59.006511
4.413827 -2.349070 65.067391
4.982066 0.423103 2.714900
3.740658 3.317752 88.827946
-3.085242 3.934626 37.691452
2.296704 4.441301 10.076673
2.386987 -4.393437 3.097667
0.153489 4.997644 13.186749
-4.098130 2.864494 32.090488
2.910086 4.065882 53.738284
1.200988 -4.853620 53.966125
-3.433357 3.634840 5.542161
4.676711 1.768722 82.861714
4.249045 -2.635454 73.229842
-3.610548 -3.458894 75.969761
-2.202767 4.488632 59.396197
-1.845740 -4.646853 49.438963
0.206994 4.995713 10.781672
4.815724 1.344916 26.774138
-4.980554 0.440549 34.164044
-4.917037 -0.907052 77.565248
-4.193739 -2.722601 91.387184
4.495225 2.189282 65.697537
-0.761449 4.941679 7.202641
1.371523 -4.808214 17.802701
2.942478 -4.042502 29.701567
2.000636 4.582298 44.241417
2.841162 -4.114341 82.436518
-0.292227 -4.991453 51.938340
-3.098653 3.924073 5.420910
4.013628 2.981743 51.906868
0.648407 -4.957779 57.317813
-4.906210 0.963900 46.085484
-4.208643 2.699504 83.910023
1.639764 4.723470 21.721767
-3.155655 3.878381 48.501757
-4.349415 2.466291 55.014225
2.058717 -4.556499 83.526495
2.295194 4.442081 76.779273
-3.931002 -3.089858 1.818532
-4.951485 -0.694834 14.774163
-4.636556 1.871456 8.431804
-0.218967 -4.995203 87.833403
-3.567530 3.503245 94.053851
-0.304548 4.990716 1.594155
2.037641 -4.565963 19.758105
4.675320 -1.772394 66.713286
0.616496 4.961848 58.013921
4.740659 -1.589389 8.201865
1.694761 4.704018 68.613592
-2.195555 4.492164 4.478864
-4.233821 -2.659842 19.301366
1.388854 -4.803237 85.238579
-2.632251 -4.251030 94.914834
-1.635067 -4.725098 47.984994
-3.719879 -3.341033 92.267963
-3.354250 3.707965 76.063358
-0.756297 4.942470 38.861773
4.878692 1.094698 92.986878
-0.738366 -4.945181 5.163380
4.218596 2.683924 94.659833
-1.848129 4.645903 5.605804
2.736746 -4.184522 41.033010
4.762914 1.521398 5.007318
-4.977246 -0.476470 92.314844
-3.556155 3.514791 6.403186
-4.034167 -2.953896 14.678750
-4.483087 2.214031 73.683836
4.997591 -0.155197 36.402390
-1.485695 -4.774171 35.185807
-0.316483 4.989974 45.582974
4.059161 2.919453 10.720964
3.441329 -3.627293 66.747787
3.728411 -3.331509 7.080048
3.491926 -3.578611 25.911445
-4.167525 -2.762560 5.594842
4.825492 -1.309437 17.653836
0.387242 -4.984982 42.959683
-4.459196 -2.261763 60.403054
4.046414 2.937096 88.414222
-2.678335 4.222146 37.677431
-3.211550 3.832225 89.160162
-3.588302 3.481966 65.729061
1.767660 -4.677112 80.320779
-2.327344 4.425322 75.966459
-3.828999 3.215395 24.452806
-3.748286 3.309132 23.129260
4.326078 2.507001 87.973265
-3.253995 3.796250 95.027733
0.140507 -4.998025 1.685820
0.966580 -4.905683 61.718453
4.494884 2.189982 1.043442
-4.590557 -1.981613 92.491013
4.640600 1.861405 23.148679
4.913295 -0.927107 81.527538
-2.561253 -4.294180 94.450356
3.260737 -3.790461 77.935176
0.930111 4.912728 54.389766
-2.215959 -4.482134 19.868009
-4.847542 1.225289 29.239567
-0.541594 4.970581 18.643407
-3.220561 -3.824655 91.206949
4.939701 -0.774183 50.186575
-2.935154 -4.047823 51.997482
-2.512330 4.322985 85.170585
-4.869308 -1.135711 43.714865
3.874694 3.160182 90.480011
4.103460 2.856854 95.076432
-2.277291 4.451286 75.669864
-3.366124 3.697189 37.142378
2.488205 4.336916 46.023321
-4.996646 -0.183097 23.216968
-4.991271 -0.295326 10.506826
-4.976570 -0.483475 86.547070
1.103823 -4.876636 62.731919
-4.945653 -0.735199 28.977526
2.990074 -4.007426 43.959739
-0.050377 4.999746 88.168160
4.378060 2.415076 23.152917
0.665660 -4.955492 87.112804
3.618693 3.450371 65.923067
0.549478 -4.969716 90.146936
-2.607554 4.266223 79.101880
2.502568 4.328644 75.862134
-4.429183 -2.319986 54.801751
-4.600890 1.957500 21.551878
4.012542 2.983204 37.137820
4.979257 0.454973 2.549861
2.978616 -4.015949 29.351245
-4.905041 -0.969832 99.821964
-3.594300 -3.475774 69.431178
3.113248 -3.912504 75.218102
4.945852 0.733857 37.402998
1.546357 4.754869 89.580939
-0.866705 -4.924309 0.647806
4.833411 1.279896 48.768214
4.957075 0.653760 73.773132
3.832733 -3.210944 67.821721
-4.555357 -2.061243 76.378566
-3.426207 -3.641580 58.473011
1.310901 4.825095 59.230004
-4.856929 1.187535 11.890407
3.914386 -3.110881 4.427411
3.002759 -3.997929 75.544704
2.008730 -4.578756 3.770915
-4.934566 -0.806260 81.581399
4.634727 -1.875981 16.711453
1.431281 -4.790766 21.081037
-1.948710 4.604620 18.584913
-2.657784 -4.235113 27.826596
-3.964168 3.047190 95.329184
0.171055 -4.997073 70.934803
-3.644739 3.422846 89.775405
4.842025 -1.246913 72.842371
-0.282067 4.992037 71.257299
-2.868554 -4.095290 33.124782
-4.582048 2.001209 87.799461
4.844209 1.238401 92.681672
-4.258584 2.620011 22.002812
3.071225 -3.945577 10.012405
0.307212 -4.990553 75.019720
2.381071 -4.396646 52.225772
-4.075952 2.895965 17.028823
-3.618894 -3.450160 67.845021
-0.573603 -4.966989 67.934478
-4.999368 -0.079515 64.319254
0.350292 -4.987714 97.345801
2.421323 -4.374608 70.905569
-4.621223 1.909005 7.943278
-4.459880 -2.260414 2.470101
4.780596 1.464889 25.204712
4.847018 -1.227363 73.127290
-4.463644 -2.252973 11.678527
4.962962 0.607462 3.119932
-0.689615 -4.952215 25.588770
-4.692185 1.727253 0.562269
3.592561 -3.477571 28.063370
4.385667 -2.401234 93.494657
3.352389 -3.709648 11.943631
-4.987529 -0.352921 83.066858
-4.143167 -2.798958 80.087917
4.046255 -2.937316 35.946165
-4.427287 -2.323603 64.682915
-1.686963 4.706820 47.355491
0.031653 4.999900 48.856349
3.420646 3.646804 69.473905
0.287480 -4.991729 75.987976
4.373868 2.422659 36.910151
4.623570 -1.903313 20.067110
3.802544 3.246638 64.588319
-2.990703 4.006956 90.959042
-4.602570 -1.953548 5.356369
-2.412349 4.379563 99.536381
4.995013 -0.223258 19.094357
3.949197 -3.066568 47.298114
4.192055 2.725192 51.176183
-1.550762 4.753434 6.311345
-3.301937 3.754626 8.226663
-3.959459 -3.053307 37.636404
-2.540305 4.306605 78.027159
4.995230 -0.218345 59.262690
-4.817500 -1.338540 8.252817
4.384576 2.403225 45.082643
3.667804 -3.398119 43.338610
1.511963 4.765917 77.032257
1.152712 -4.865311 19.327220
-4.842587 1.244729 19.682163
3.949613 -3.066032 97.350220
-4.943798 -0.747572 39.266248
-3.920242 -3.103498 33.369207
-4.928061 -0.845112 28.484246
1.098395 -4.877861 0.247014
4.583773 -1.997255 65.702320
4.116201 -2.838467 14.032585
-1.327629 -4.820519 5.379683
-4.073053 2.900041 78.732609
-3.493315 3.577254 34.680559
-4.909302 -0.948028 31.331188
-0.200929 4.995961 42.533919
2.103519 4.535990 61.914021
4.254750 -2.626233 32.884099
0.876668 4.922545 55.189497
4.971700 -0.531225 78.748159
-2.249640 4.465324 35.594437
-3.843258 3.198338 10.407692
-4.998150 0.136015 87.347736
-2.749331 4.176264 51.776839
-4.977402 0.474835 51.997397
4.514052 -2.150194 68.331757
-1.287226 4.831464 48.758942
2.836541 -4.117528 93.731179
-3.087520 -3.932838 20.216634
1.747916 4.684527 22.720522
-4.915161 0.917163 14.461734
3.937676 3.081348 20.664655
-2.019587 -4.573977 83.042702
-2.981355 -4.013916 15.471267
-4.963347 0.604304 92.167763
-0.980865 -4.902846 81.549228
-4.311920 -2.531274 31.026851
4.273126 -2.596227 93.446133
-3.337006 3.723492 76.803714
4.994756 0.228944 18.124418
-4.474456 -2.231422 90.694125
4.679999 1.760003 84.193899
-4.994636 -0.231550 6.224597
4.927292 -0.849582 67.220162
-4.942304 0.757383 67.653311
4.030979 -2.958245 15.445216
-4.684600 -1.747719 48.266642
-0.692101 4.951868 62.738904
0.639350 -4.958955 27.415633
4.995144 0.220313 72.859235
4.994799 0.228005 67.509656
0.003543 -4.999999 14.158747
-3.016653 3.987456 45.724840
-0.156977 -4.997535 79.974600
-0.663227 4.955818 9.634866
-4.051602 2.929935 56.600841
2.951877 4.035644 55.395801
-2.412634 -4.379406 43.608807
4.273724 -2.595242 6.495645
1.701410 4.701617 98.637962
3.693143 3.370563 65.928291
-4.987310 -0.356011 83.502019
-2.790126 -4.149120 10.600400
1.758496 4.680565 66.298283
-4.984718 0.390626 28.257240
-4.252615 2.629689 32.755333
-0.728811 -4.946598 46.867509
-1.558829 4.750795 64.967674
1.010052 -4.896917 49.965175
2.008606 4.578810 4.772370
2.018419 4.574493 8.424814
4.243863 -2.643790 37.030948
0.496827 -4.975255 70.163643
-2.258424 4.460888 81.701236
3.195458 -3.845653 22.288520
-3.585782 3.484561 22.905719
2.534857 4.309814 33.448339
3.290095 3.765007 83.365412
-2.429044 -4.370326 69.168432
4.934400 -0.807279 51.269382
-3.338654 -3.722014 41.897790
-4.974886 0.500514 30.439160
-2.760260 4.169048 92.058878
4.708388 1.682583 21.170277
1.926259 -4.614057 96.210459
2.262474 -4.458835 41.945318
-2.023952 -4.572047 27.639705
-0.201634 -4.995933 39.970748
3.874547 3.160362 45.410880
2.392891 -4.390225 45.558689
4.682850 -1.752402 84.258257
0.178119 -4.996826 88.642564
4.775827 -1.480363 3.335946
4.685776 1.744564 50.034344
0.139678 -4.998049 1.158016
-2.913104 4.063721 55.309646
-1.143784 -4.867418 8.887775
-4.778432 1.471933 68.223404
-3.882826 3.150185 21.734363
-4.339352 2.483954 97.560083
4.714507 -1.665361 77.235628
-3.973979 3.034385 2.172977
-3.560402 -3.510489 40.003836
1.014725 -4.895951 75.619743
-0.379623 4.985568 91.294335
-1.188643 -4.856658 17.143778
2.031908 4.568517 16.722469
-0.828587 -4.930866 12.051155
3.686602 3.377716 71.725915
-4.997583 -0.155439 71.071328
0.438129 -4.980767 63.545729
4.422232 2.333208 11.752998
0.813748 -4.933337 87.471069
-4.985375 -0.382151 86.909983
3.313515 -3.744412 74.417278
4.734477 -1.607709 58.798821
4.862089 1.166229 48.330322
-2.243459 -4.468433 74.672736
4.748274 1.566491 28.024460
3.773541 -3.280303 55.147271
-3.261220 -3.790046 61.733690
-1.003719 4.898219 87.399077
0.305516 -4.990657 52.445575
-4.846080 1.231059 6.149268
-3.263542 3.788046 4.617607
-1.181529 -4.858394 61.082278
-4.962232 -0.613392 37.718374
0.525965 -4.972259 64.142743
3.893879 -3.136512 75.958194
4.569560 2.029561 58.802454
0.475214 -4.977366 36.782971
3.821693 -3.224075 97.914466
-4.861403 1.169085 89.557367
4.263373 2.612211 71.749041
3.484383 3.585955 26.301117
1.564064 4.749074 4.977352
-3.857778 3.180810 93.030742
1.791580 -4.668002 61.511752
3.556021 3.514928 57.972312
-2.098257 -4.538427 72.786660
3.132380 3.897204 45.877712
-3.773411 3.280453 86.851276
0.090283 4.999185 31.627571
2.097181 -4.538924 48.386825
1.078439 4.882312 73.081280
-4.549799 2.073482 78.649064
-4.933907 -0.810284 16.560059
3.072824 3.944331 98.618680
-0.217615 4.995262 29.961050
-4.603779 -1.950697 74.010050
4.922054 -0.879422 3.370438
4.452955 2.274026 54.303194
-3.519269 -3.551725 37.234244
3.002521 -3.998108 55.066688
3.541316 3.529742 48.901226
2.466950 4.349041 84.220073
4.714713 -1.664777 42.171445
-3.866484 3.170221 5.521600
-0.849657 4.927280 59.894114
-4.623501 -1.903480 36.398879
-4.935189 0.802438 39.134024
-3.380872 -3.683708 84.804602
2.905444 4.069201 15.380482
-4.214767 2.689933 13.803222
-0.740749 -4.944825 58.765169
1.467911 -4.779669 74.672712
-4.959468 0.635353 72.406699
2.852244 4.106666 58.910255
2.990644 4.007000 14.146287
2.844994 4.111692 85.702776
0.878804 4.922165 88.290113
4.074779 -2.897615 84.390720
-0.719896 4.947904 77.040538
-4.969333 0.552927 5.008326
-0.071324 -4.999491 64.753633
-2.816820 -4.131044 95.129981
1.783875 4.670952 96.694522
-3.911836 3.114087 28.815409
4.613070 1.928622 54.724615
2.215917 -4.482155 56.583177
4.955192 -0.667890 43.680114
-3.688025 -3.376162 79.026100
1.918862 -4.617139 39.601322
4.093467 2.871155 44.981826
4.357958 2.451163 23.558421
-3.284093 3.770243 80.099253
4.091899 -2.873388 87.451827
-1.481911 4.775347 61.189002
-3.101898 -3.921508 56.339880
-1.552789 4.752773 2.850295
4.682839 -1.752432 31.512034
-0.350411 4.987706 74.069175
-2.724566 -4.192462 16.870044
-4.014736 -2.980251 7.480335
-0.493353 4.975601 21.075402
-4.993319 -0.258392 95.185353
3.686479 -3.377850 15.793530
-3.824459 3.220794 46.046129
2.317103 -4.430692 59.515343
2.295473 4.441937 60.814130
-4.989302 -0.326904 66.128340
-4.985431 0.381410 49.843343
2.750430 -4.175540 40.736211
-4.970917 -0.538502 80.673700
4.961386 0.620204 25.936180
-3.782615 3.269836 47.372384
4.826713 -1.304930 22.990398
0.293819 -4.991360 99.665333
-4.885547 1.063686 56.851232
-4.292848 -2.563486 38.721739
-4.163166 -2.769124 78.375423
4.778499 -1.471715 39.468107
2.394898 -4.389130 53.183496
4.800042 1.399856 49.028235
-0.281015 4.992097 76.367108
-0.002143 -5.000000 84.780200
-0.951829 4.908566 73.244874
1.933819 -4.610894 46.381291
4.999306 0.083300 31.013905
4.999192 0.089865 30.937521
1.210488 4.851260 0.826026
-2.384883 4.394580 22.437674
4.985449 -0.381184 73.117079
0.616449 -4.961854 29.655519
-4.943660 0.748480 41.398694
3.942664 -3.074964 39.423202
-4.991829 0.285736 5.107133
4.026978 2.963689 47.169673
4.544266 -2.085581 57.474591
-4.594429 -1.972619 92.383346
2.303853 4.437596 36.418831
-4.567352 2.034525 9.570409
-4.284750 2.576998 59.882636
4.839199 -1.257838 6.700594
2.963837 -4.026868 32.659292
1.694569 -4.704087 89.277917
-1.342214 4.816478 8.965937
1.832458 4.652107 39.663329
-1.959311 -4.600120 35.316486
-2.534096 -4.310262 9.611438
-4.141408 -2.801560 55.089147
1.707148 4.699537 42.721476
4.959622 0.634152 29.736825
3.802221 -3.247016 59.064859
-4.999650 0.059169 61.228619
-4.441819 -2.295702 66.150973
-4.751980 -1.555214 28.315872
3.950075 3.065437 85.443847
-2.013549 -4.576639 25.177277
-4.795176 -1.416433 27.963009
-3.648019 3.419350 39.188697
4.822665 -1.319813 43.092095
0.949185 -4.909078 30.620406
-2.497563 4.331533 72.527249
-4.877778 -1.098764 80.026113
3.354442 -3.707792 49.808025
-2.977440 -4.016821 7.925806
-3.069038 -3.947279 11.958493
2.083509 4.545216 56.869650
-1.505520 -4.767957 19.287584
-4.979203 0.455561 87.656718
0.984408 -4.902136 71.587764
-4.955033 -0.669066 88.765201
-4.185840 -2.734729 88.904841
-4.392544 2.388631 45.227911
-1.698296 4.702743 43.255331
-2.798865 4.143230 87.554567
-4.047661 -2.935378 30.067205
-2.634850 4.249420 89.274984
2.603418 4.268749 49.410949
-1.837874 4.649970 3.374780
-2.632889 -4.250635 35.159227
-1.424843 -4.792684 66.927475
1.604981 -4.735403 77.692757
4.440025 -2.299168 33.910854
-4.134126 2.812295 38.218415
-2.302587 -4.438253 60.953893
-4.786632 -1.445046 75.945558
-3.632577 -3.435751 61.093711
4.462651 2.254939 57.752644
4.311795 -2.531486 35.275865
-2.764200 4.166437 27.033003
-4.548064 -2.077286 15.323675
4.986595 0.365877 71.061476
-0.186033 4.996538 75.561620
1.585347 -4.742012 67.303252
-4.651985 1.832767 95.090434
4.940326 0.770182 88.968943
-2.896277 -4.075731 60.736011
1.693300 4.704544 9.220105
-2.376027 4.399374 86.420249
-4.443791 2.291883 92.228843
4.987722 0.350184 66.263686
-2.894020 4.077333 9.691671
4.563927 2.042197 71.377356
3.956198 3.057532 67.375662
-3.642900 3.424803 72.166279
3.760164 -3.295629 63.015733
-4.628647 -1.890932 22.920369
4.898463 1.002529 38.420739
4.558440 2.054415 28.577299
-4.828799 1.297189 2.638301
2.633155 -4.250470 78.551483
-3.146058 3.886170 23.230899
2.771124 -4.161835 89.082543
-3.441677 3.626963 42.373886
-4.835304 1.272728 82.353437
1.853315 -4.643837 42.521129
2.289217 4.445164 0.502938
-4.951043 -0.697980 6.348218
-3.206930 3.836092 76.418715
-2.696264 4.210719 1.164204
4.628294 -1.891797 91.207495
0.007551 -4.999994 13.130208
0.237669 -4.994348 61.032614
3.592400 3.477738 15.750240
4.930196 -0.832564 28.543182
-1.106178 -4.876102 63.201759
-4.996365 -0.190619 55.159684
-4.608804 1.938794 31.096191
-4.377067 2.416876 25.404010
-1.090337 4.879669 29.118588
4.351518 -2.462578 99.264585
-2.721861 4.194219 88.436315
0.929187 -4.912903 5.523224
-3.763559 3.291751 52.150586
1.060590 -4.886220 39.869269
3.796910 3.253225 67.525371
4.371203 -2.427465 59.120658
3.193248 3.847489 52.757341
4.201844 -2.710075 20.376488
-4.322308 -2.513495 80.328814
3.261310 3.789968 58.778058
0.447867 4.979901 51.539719
3.707721 -3.354520 30.109101
-4.999191 0.089965 2.200787
-3.405164 -3.661264 34.098555
-4.976120 -0.488084 86.766276
0.808137 4.934259 35.606068
3.653222 -3.413792 68.589951
-4.999709 -0.053941 96.475960
0.842520 -4.928505 86.217069
4.264516 -2.610346 82.171207
-4.765915 -1.511970 78.959661
4.654526 1.826303 73.587719
4.053218 2.927699 85.766158
3.888822 3.142780 81.137321
4.999201 -0.089389 58.586631
-4.953838 0.677859 95.523315
4.999361 0.079927 27.526385
-1.629935 -4.726871 95.836006
4.950000 0.705333 81.033346
-2.802381 4.140852 47.297970
-3.863250 -3.174161 85.751977
0.744711 -4.944229 0.714037
-1.065826 4.885081 64.676520
0.181399 4.996708 74.527247
-0.654558 4.956970 42.901558
4.731001 1.617909 11.159869
-1.626606 4.728018 52.422758
-4.952289 -0.689080 27.580466
-4.848770 1.220423 89.109137
-3.694364 -3.369225 52.401042
-2.755229 -4.172375 12.917730
2.414743 -4.378243 30.744044
-1.976542 4.592742 60.268622
3.113135 -3.912594 16.002979
-4.290328 2.567700 53.924813
-0.640812 -4.958766 1.980480
-4.869872 -1.133290 32.400557
4.871854 -1.124738 95.093658
-4.978510 0.463071 90.408131
-3.003790 3.997155 67.172213
-4.693322 -1.724160 21.343632
-3.018365 3.986160 31.606898
-3.327645 3.731860 50.268014
-0.046311 -4.999786 33.948762
4.901097 -0.989571 99.081561
2.796959 4.144517 10.700687
-4.290258 2.567817 41.164178
-4.887812 1.053229 99.096921
-4.587035 -1.989751 12.192094
4.280474 -2.584095 72.940519
-1.771712 4.675579 47.407622
3.582914 -3.487511 78.181986
0.162013 4.997374 58.118708
-4.472970 2.234400 88.439354
-3.727095 3.332981 72.949452
2.036663 -4.566399 11.178720
-2.012236 -4.577216 7.575747
-2.826858 -4.124181 73.634520
3.541028 3.530031 94.182530
-4.983253 0.408893 22.602978
-3.384700 -3.680191 11.896170
4.840379 -1.253290 57.358184
0.258416 -4.993318 66.780771
-0.175132 -4.996932 1.577690
-1.525460 4.761614 59.029099
4.913747 0.924710 3.610051
-4.792002 -1.427134 5.094893
0.405870 4.983500 70.573684
4.209710 -2.697840 79.001642
3.676070 3.389176 28.494223
4.784861 1.450897 2.635089
2.924561 4.055483 27.850108
0.397330 4.984188 1.415644
-2.079622 -4.546996 87.199370
-2.803928 4.139806 12.419178
-1.608090 -4.734347 22.539213
1.728252 4.691817 8.312240
-2.861532 -4.100199 47.454211
-1.018437 4.895180 5.127539
0.241508 4.994164 36.218097
-2.800092 4.142401 19.486816
-4.428485 -2.321320 57.038427
-0.014532 -4.999979 15.004992
3.354643 -3.707610 58.573062
4.929474 -0.836834 62.558477
4.839744 -1.255739 83.268382
-0.608789 -4.962799 97.182653
-3.188846 3.851137 36.118892
-4.890113 -1.042493 69.309048
3.268639 -3.783649 85.147399
-4.970668 -0.540799 33.107998
-1.412992 -4.796192 84.482470
-4.095243 -2.868621 15.451022
-4.831341 1.287689 25.288412
1.627043 4.727867 90.768876
3.466906 -3.602854 21.500343
4.228596 2.668140 67.629594
-0.693865 4.951621 43.557597
4.813243 1.353771 10.782012
0.102936 -4.998940 16.414948
-3.800026 -3.249585 33.388524
-0.843702 4.928303 41.412643
-2.481426 -4.340798 88.530208
-0.499532 4.974984 19.365290
1.705689 4.700067 62.525413
-4.566451 2.036547 96.400124
-0.278342 4.992247 29.123770
-4.995692 0.207514 7.122998
-1.388872 4.803232 15.187453
4.387327 2.398200 14.179686
2.184034 -4.497777 19.071142
-1.578967 -4.744140 76.477505
2.923872 4.055980 95.263569
4.919991 -0.890892 10.165003
4.007087 2.990527 34.967676
4.192864 2.723948 74.147302
-4.346185 2.471978 23.593259
0.126129 4.998409 48.881840
-2.410279 4.380702 83.852405
4.859597 -1.176570 32.652355
2.212522 4.483832 24.654801
3.661566 -3.404839 32.148283
-3.767969 -3.286702 68.408275
-0.762229 -4.941559 29.560732
-3.107282 -3.917244 22.942773
-4.524078 -2.129018 41.031296
-2.168116 -4.505472 27.915036
-0.935561 -4.911693 72.268929
0.530161 -4.971814 49.562824
-0.698927 4.950909 37.880430
4.383853 -2.404545 31.511986
4.486721 -2.206656 4.680563
2.088879 4.542751 63.157022
4.513955 -2.150398 27.960037
4.998883 -0.105694 89.782580
4.737066 -1.600063 4.436840
-4.104743 2.855010 91.141671
3.545842 -3.525196 13.182923
-3.185459 -3.853940 24.856388
4.858024 -1.183047 25.504887
-3.820641 -3.225322 82.952756
0.401046 -4.983890 66.165801
1.359515 -4.811623 53.607156
3.688657 -3.375472 0.663253
-3.931904 -3.088711 26.192842
4.565415 2.038868 67.242914
-4.956665 -0.656864 39.098407
-2.550127 4.300796 19.143323
4.433387 -2.311943 58.411145
2.210220 -4.484967 9.140973
3.530635 3.540426 25.686901
-4.984263 -0.396387 65.740153
1.558081 4.751040 24.181670
-2.687995 -4.216003 80.133938
3.120826 -3.906462 18.615772
4.999502 0.070539 60.327890
0.965889 4.905819 33.635074
-4.495503 2.188709 48.179311
4.988200 -0.343310 63.931091
-1.311974 -4.824803 98.943738
3.257699 3.793072 32.087381
2.239980 -4.470178 16.773704
2.351051 -4.412772 94.533746
0.082533 4.999319 79.756797
3.799212 3.250537 30.800494
-1.845594 -4.646911 26.551608
4.998273 0.131411 73.846511
4.953602 0.679581 42.542441
2.052411 -4.559343 37.162948
-4.968426 0.561015 80.565493
-4.584601 1.995352 39.584092
-4.912358 -0.932061 26.097191
1.575183 4.745398 71.967833
4.247923 2.637262 51.856872
1.680374 -4.709176 17.478022
1.759829 -4.680064 26.863253
0.774069 4.939718 55.524136
-0.611683 -4.962443 7.376904
2.142950 4.517495 30.086702
3.358382 3.704223 88.007268
2.364230 -4.405725 83.526329
-2.908347 -4.067126 1.584203
-1.208690 -4.851708 93.982400
-3.511847 3.559063 65.731746
1.720359 -4.694717 32.083296
-4.268513 -2.603804 79.644371
4.998375 0.127452 22.182035
-2.831821 4.120775 95.416989
-4.958997 -0.639019 8.171358
-4.047743 2.935265 23.854268
-4.527014 -2.122768 17.900618
0.494802 4.975457 69.616979
0.742240 -4.944601 0.654562
-2.770918 4.161973 94.163389
-3.551220 3.519778 18.147099
4.026304 -2.964605 40.768241
1.875424 -4.634952 86.566800
-4.169899 2.758974 25.620919
3.225751 3.820279 15.267688
-4.994208 -0.240602 84.562585
-1.740847 4.687158 42.193613
4.141924 -2.800798 37.226527
-0.236793 4.994390 30.738033
3.385676 -3.679293 38.328628
-0.966629 4.905673 58.187709
-4.281168 2.582944 51.671251
0.972476 -4.904517 84.192901
1.918371 4.617342 23.854969
-2.599941 4.270867 43.825243
-4.991966 -0.283338 28.405809
4.999607 0.062663 5.061367
-0.077387 -4.999401 79.146316
-4.996618 -0.183876 29.757011
-0.490081 -4.975924 46.260176
-1.726814 -4.692346 81.249887
4.302827 2.546699 86.234093
4.732780 -1.612696 41.072025
2.918343 4.059960 6.475375
2.356499 4.409866 91.615136
3.638708 3.429257 29.095489
-4.994062 0.243609 82.543035
-2.475028 4.344449 16.588417
3.398264 3.667670 97.789211
4.636839 1.870754 92.110656
4.713344 -1.668648 2.139050
2.858761 4.102132 71.725522
-3.091906 3.929391 81.929006
-4.191682 -2.725766 77.870119
-3.092075 -3.929258 3.592069
3.122155 -3.905400 43.211942
4.119840 2.833182 26.975193
-4.657319 1.819169 26.904727
1.368068 -4.809199 82.550023
2.067864 4.552355 40.178127
3.088645 -3.931955 6.000370
-0.629167 4.960257 98.976223
4.695660 1.717783 77.388258
0.780560 -4.938697 73.825447
2.624806 -4.255631 84.328600
-3.470963 -3.598946 68.105309
-1.410747 4.796852 5.860112
-4.993542 -0.254037 85.443234
-0.595458 4.964416 38.586737
-4.927579 -0.847921 96.744157
-1.162062 4.863087 36.455251
2.350618 -4.413003 70.630838
-2.519147 4.319016 19.796500
3.574110 -3.496532 87.782073
2.421417 -4.374556 76.610114
-4.616730 -1.919844 95.763693
4.960584 -0.626587 76.175775
4.999395 0.077794 26.752474
-2.858070 4.102613 16.611456
4.487518 -2.205035 37.609910
-4.926043 -0.856798 0.635329
2.974587 4.018935 23.986101
2.064956 4.553675 10.720563
-0.353416 4.987494 31.168384
-2.189928 4.494910 83.294895
-0.098830 -4.999023 90.505016
4.219444 -2.682591 36.655554
-0.368181 4.986426 17.160344
4.728444 -1.625366 24.809863
-4.813018 1.354570 54.222139
4.903518 -0.977504 43.495301
-2.377207 -4.398737 26.263746
-1.997975 4.583459 29.030956
-1.595767 4.738515 38.385529
-4.862536 1.164363 27.214831
-4.493886 2.192028 2.322746
-4.105575 2.853813 18.711963
3.714483 3.347031 99.410404
4.267551 2.605381 86.260173
-4.629299 -1.889337 95.063231
4.966341 0.579182 0.003488
4.147695 2.792245 4.109850
0.093184 -4.999132 12.769346
-4.821093 -1.325542 76.841112
-1.906513 4.622252 18.527188
-4.577854 -2.010783 83.578454
2.882952 4.085167 54.805344
-4.482798 -2.214616 54.435566
-2.608311 -4.265761 8.655395
-0.445548 4.980109 42.721996
-4.301595 2.548781 98.838120
-2.340765 -4.418237 44.108763
1.295886 -4.829149 36.804556
-4.655986 1.822578 19.977677
4.868767 -1.138028 49.525117
-4.566677 2.036041 33.972966
1.337233 4.817863 22.465353
-4.954299 0.674479 60.716203
-1.146257 4.866836 88.020880
-3.582670 3.487761 38.109619
0.255346 -4.993476 39.251829
-3.032433 3.975469 42.347124
-3.847742 -3.192942 69.551431
-2.810253 -4.135514 20.453240
3.389063 3.676174 61.061101
-4.347466 -2.469724 88.056302
2.370868 -4.402157 44.849499
-1.712825 -4.697471 65.696791
-4.765557 1.513099 23.903038
1.843510 -4.647738 47.682710
-4.892877 1.029443 85.334718
4.196017 -2.719089 40.156406
-3.457744 3.611649 57.715926
2.687823 -4.216113 1.767457
4.315810 -2.524636 96.639010
-0.673216 4.954471 6.365822
-3.343617 -3.717556 81.877468
4.759375 1.532431 52.204884
1.395717 4.801247 3.165314
-0.038756 4.999850 76.100642
4.997412 -0.160847 17.222802
4.862281 1.165427 80.586321
-0.881319 4.921715 21.872965
4.676408 1.769523 96.977596
-0.111026 4.998767 50.149015
-0.933944 -4.912000 81.964269
-3.054141 3.958816 17.625304
-4.651439 -1.834151 50.769235
4.542083 2.090332 99.586748
2.215507 4.482358 82.038030
0.560436 -4.968492 31.742057
-4.912120 0.933316 33.644501
-3.255869 3.794643 37.423845
4.614143 1.926054 48.621295
1.015590 4.895771 18.332138
-4.455748 -2.268548 31.346684
4.842459 1.245226 99.991673
3.380963 3.683624 98.940571
4.874734 1.112191 43.202914
-1.526671 -4.761226 43.286587
-4.815386 -1.346125 83.226061
4.990756 0.303896 55.420020
1.945101 4.606146 19.804545
-4.232049 -2.662660 77.795410
3.489575 3.580903 16.304226
3.604739 3.464947 6.044482
3.486808 3.583597 92.660664
1.389223 -4.803130 62.990358
-2.880722 -4.086740 13.079222
-2.836309 4.117688 15.026283
3.500384 -3.570338 33.392562
2.814900 4.132353 43.499923
1.960100 -4.599784 45.336996
-4.539811 2.095261 6.620099
-0.945752 -4.909741 83.660017
2.618176 4.259713 30.886398
2.175372 -4.501973 30.937611
2.717737 4.196892 21.598345
-0.254861 -4.993500 34.825282
-4.110568 -2.846618 38.200985
3.293404 3.762113 18.421818
-2.127675 -4.524710 11.771468
-4.965366 0.587487 42.128808
4.085037 2.883136 1.599818
1.560921 -4.750108 99.669765
0.484214 -4.976498 7.678674
4.698678 -1.709510 69.027835
-1.678914 -4.709697 38.651580
4.597448 1.965572 99.523583
4.987795 0.349142 88.243836
-4.775410 1.481707 0.022188
-2.224797 -4.477754 66.595219
4.199537 -2.713648 75.440517
4.996719 0.181102 65.835456
1.039720 4.890704 28.738042
3.291133 3.764099 74.305885
3.724887 -3.335448 57.632978
-3.015045 -3.988672 91.991258
4.841557 1.248732 30.102954
-4.716375 1.660063 11.071084
-1.462858 -4.781218 45.445808
-4.158212 2.776558 73.797002
-4.440050 2.299121 86.458432
-1.147218 4.866610 52.814916
-4.732468 1.613614 61.022905
1.832532 4.652078 90.548857
-0.803342 4.935042 30.859731
-4.198925 2.714595 30.105164
-1.779222 4.672726 98.417125
-4.835403 -1.272353 90.614739
-4.289687 2.568772 68.050882
-4.545785 2.082267 75.249589
0.315262 4.990051 61.195672
-3.108890 3.915967 47.338731
4.939703 -0.774169 58.832991
1.636473 -4.724612 23.885317
3.079893 3.938815 0.518467
0.257012 -4.993390 2.447801
3.703924 3.358712 50.107223
-1.744808 -4.685685 59.828651
-0.613812 -4.962180 53.560793
-0.733969 4.945836 94.934363
4.593713 -1.974286 72.187323
1.228458 -4.846740 31.571531
2.031519 -4.568690 48.741931
2.050255 -4.560313 74.873871
-4.655995 1.822556 70.934272
4.819270 1.332154 91.090832
4.871312 -1.127085 80.350699
3.968851 -3.041089 16.328673
3.394544 3.671113 62.365186
2.883757 4.084598 55.916078
-4.859561 1.176720 61.436228
3.561558 3.509316 80.303071
0.256458 -4.993419 60.779748
-0.023715 4.999944 20.598104
2.695954 -4.210918 31.024066
2.329442 4.424217 10.040893
-1.891783 -4.628300 99.867753
4.999160 -0.091654 14.724818
0.319650 4.989772 11.221442
-3.646003 3.421500 1.623302
-3.331658 -3.728277 1.793622
4.979078 -0.456927 7.852867
-1.234308 -4.845254 68.462083
1.862920 4.639992 82.813913
4.654725 1.825798 49.497275
-4.764914 -1.515122 8.475429
-4.853535 1.201332 62.209641
4.852850 -1.204098 87.164607
1.987029 -4.588215 90.870243
2.869046 4.094945 98.892698
3.645854 -3.421659 11.290310
-4.931234 -0.826394 50.718926
0.050097 -4.999749 92.635884
-4.994917 -0.225404 78.584074
0.648913 4.957712 57.287945
0.485138 -4.976408 38.270541
2.688111 4.215929 58.759073
-3.872416 3.162972 93.167552
2.846904 -4.110370 29.938082
4.890735 1.039574 23.793494
-2.102579 -4.536426 89.773677
-2.929513 4.051907 83.578943
3.907759 3.119202 49.560498
4.946892 -0.726814 35.290673
-4.895695 -1.015958 42.903491
0.648724 -4.957737 62.559065
1.615510 4.731821 31.006432
4.742492 1.583910 49.812771
-4.966157 0.580760 55.550307
0.825081 -4.931454 71.765088
-4.402310 2.370584 36.547609
-4.949610 0.708072 94.015166
-2.711758 -4.200758 43.803244
-4.864768 1.155005 66.694177
-3.968702 3.041283 31.610402
-4.932736 -0.817385 5.518168
3.049111 3.962691 94.438418
-2.331866 -4.422940 50.597965
-3.817693 -3.228811 26.696083
-1.221668 -4.848456 68.224500
3.425624 -3.642129 93.930992
4.530814 -2.114645 4.769084
-2.811440 4.134708 98.018060
-3.095052 3.926914 59.582460
2.183690 4.497944 93.854849
4.832491 1.283365 17.960264
4.999296 0.083919 78.922065
1.163390 -4.862769 5.186873
1.528954 4.760494 97.676991
-4.989866 0.318179 34.315693
-0.125364 -4.998428 73.996058
4.993807 -0.248777 41.859761
-4.314803 -2.526356 23.564347
-3.452639 -3.616529 87.864794
1.019159 -4.895030 74.902506
3.150898 3.882247 2.460398
-3.514457 -3.556486 35.831156
-3.000082 -3.999938 9.818682
0.085266 -4.999273 11.029634
-4.934548 0.806371 48.355295
4.983475 0.406176 87.190958
-4.751040 -1.558081 98.076169
